ply
format ascii 1.0
element vertex 900
property float32 x
property float32 y
property float32 z
element face 0
property list uint8 int32 vertex_indices
end_header
-41.58495736475765 74.43679675966509 53.85919600000001
-42.31878053496771 75.75033534765343 62.149125
-7.095324663413439 12.700583898204107 70.751881
-42.685689774300705 76.4071004427313 76.38277600000002
-43.05260135940574 77.06386973672548 31.64844400000001
-5.260769083660314 9.416741627149545 74.349397
-3.7931250890122223 6.78966865008916 6.153003999999999
-39.383492545671515 70.49618939353266 6.778658999999999
-5.994592253870372 10.730280215137888 77.94691299999998
-6.7284130783084075 12.043814604209931 74.192983
-6.361503838975403 11.387049509132062 73.098087
-4.893859844327308 8.759976532071672 73.567328
-43.41951294451077 77.72063903071965 46.194923
-6.3615038389754 11.387049509132058 76.226362
-41.21804577965262 73.78002746567093 60.42857400000001
-4.160036674117252 7.446437944083334 74.03657
-5.260769083660315 9.416741627149547 72.628846
-41.951868949862686 75.09356605365927 69.344157
-42.3187805349677 75.75033534765342 54.172024
-41.21804577965262 73.78002746567093 52.7643
-42.3187805349677 75.75033534765342 46.97699200000001
-40.85113654031962 73.12326237059307 78.72898200000002
-4.160036674117252 7.446437944083334 67.78002
-3.793125089012217 6.789668650089151 72.78526
-3.793125089012217 6.789668650089151 74.818638
-3.793125089012219 6.789668650089154 75.131466
-4.1600366741172525 7.4464379440833355 73.72374200000002
64.74033577603248 57.77267013783662 44.47437200000002
139.39452081755812 124.39221350464418 3.337557000000017
65.30164276676962 58.273566576404725 40.720442000000006
66.98557450484428 59.77626549929845 16.945552
64.7403357760325 57.772670137836634 7.247900000000012
61.372475888504304 54.76727549444571 82.17008400000002
63.61771461731606 56.770870855907496 30.397135000000013
63.61771461731606 56.770870855907496 80.76236099999998
65.30164276676962 58.27356657640474 22.26362000000001
65.30164276676962 58.27356657640474 42.128165
65.86295334612787 58.77446621736932 13.660864
62.49509704722074 55.76907477637484 83.264981
63.05640403795785 56.269971214942935 52.7643
62.49509704722074 55.76907477637484 21.637964999999994
65.30164276676962 58.27356657640474 35.71520199999999
64.7403357760325 57.772670137836634 6.309418000000014
64.74033577603248 57.77267013783662 28.989411000000004
65.86295334612785 58.774466217369316 19.44817200000001
65.30164276676962 58.27356657640474 30.553548000000006
63.056404037957854 56.26997121494294 54.01560999999999
64.17902519667429 57.27177049687207 11.940313000000009
64.17902519667429 57.27177049687207 6.935073000000015
64.74033577603248 57.77267013783662 90.77284
65.30164276676962 58.27356657640474 70.28264000000001
65.30164276676962 58.27356657640474 13.504450000000007
66.42426392548606 59.27536585833387 21.79437800000001
64.17902519667427 57.271770496872065 88.42663400000002
64.7403357760325 57.772670137836634 16.632725000000015
65.30164276676962 58.27356657640474 18.822517000000005
64.74033577603248 57.77267013783662 40.56402800000001
65.86295334612785 58.774466217369316 24.922653000000004
11.977227443266386 10.688180744682551 4.588866000000001
65.86295334612785 58.774466217369316 55.892575000000015
60.81116530914607 54.26637585348113 67.46719200000001
63.056404037957854 56.26997121494294 77.477672
65.30164276676962 58.27356657640474 29.45865200000001
65.30164276676962 58.27356657640474 45.100027
64.7403357760325 57.772670137836634 44.787198999999994
66.9855745048443 59.776265499298454 16.00707000000001
66.98557450484428 59.77626549929845 35.24596100000001
63.05640403795785 56.269971214942935 56.98747099999999
65.86295334612784 58.7744662173693 39.62554500000001
65.30164276676962 58.27356657640474 76.069948
63.61771461731606 56.770870855907496 67.936433
63.05640403795785 56.269971214942935 61.367056
66.42426392548606 59.27536585833387 15.537829000000004
65.30164276676962 58.27356657640474 57.76954
66.98557450484427 59.77626549929844 11.627485000000014
59.68854773905073 53.26457977394846 59.802919
66.42426392548604 59.27536585833386 51.669404000000014
65.30164276676962 58.273566576404725 58.39519500000001
63.617714617316054 56.77087085590749 83.577808
64.7403357760325 57.772670137836634 12.409554000000002
64.7403357760325 57.772670137836634 73.88015600000001
63.61771461731606 56.770870855907496 19.917414000000008
64.74033577603248 57.77267013783662 56.36181599999999
65.86295334612787 58.77446621736932 64.495331
62.49509704722074 55.76907477637484 31.804858
65.86295334612785 58.774466217369316 14.130105000000007
65.30164276676962 58.27356657640474 8.029968999999996
61.372475888504304 54.76727549444571 62.461952
63.056404037957854 56.26997121494294 55.57974800000001
61.37247588850431 54.76727549444572 74.662225
66.42426392548606 59.27536585833387 41.971752000000016
65.86295334612785 58.774466217369316 24.609826000000005
63.61771461731606 56.770870855907496 49.63602500000001
65.86295334612785 58.774466217369316 34.62030600000001
61.9337864678625 55.26817513541026 70.59546699999999
65.30164276676962 58.27356657640474 75.757121
61.93378646786251 55.26817513541027 81.544429
65.30164276676962 58.273566576404725 54.95409300000002
65.30164276676962 58.27356657640474 77.16484400000002
65.86295334612785 58.774466217369316 25.54830800000001
63.056404037957854 56.26997121494294 61.679884
65.86295334612785 58.774466217369316 35.089547
63.61771461731606 56.770870855907496 82.32649799999999
64.17902519667429 57.27177049687207 9.124865000000007
64.7403357760325 57.772670137836634 79.04180900000001
63.61771461731606 56.770870855907496 49.323198
60.81116530914608 54.26637585348114 50.57450800000001
66.42426392548606 59.27536585833387 19.604586000000005
66.42426392548604 59.27536585833386 23.98417100000001
62.49509704722074 55.76907477637484 31.492031000000008
65.30164276676962 58.273566576404725 27.581687000000002
65.30164276676962 58.273566576404725 52.920714000000004
61.372475888504304 54.76727549444571 84.829118
65.30164276676962 58.27356657640474 28.363756
64.74033577603248 57.77267013783662 89.83435800000001
64.7403357760325 57.772670137836634 86.393255
65.86295334612785 58.774466217369316 26.173963
65.86295334612785 58.774466217369316 47.75905999999999
64.74033577603248 57.77267013783662 49.47961100000001
61.93378646786251 55.26817513541027 62.77478000000001
65.86295334612785 58.774466217369316 11.783898999999998
62.495097047220725 55.769074776374836 70.126226
63.056404037957854 56.26997121494294 52.451473000000014
64.17902519667427 57.271770496872065 89.52153
63.61771461731606 56.770870855907496 80.136706
64.17902519667429 57.27177049687207 16.476311000000006
65.86295334612785 58.774466217369316 13.817277000000006
61.93378646786251 55.26817513541027 9.437693
64.7403357760325 57.772670137836634 39.93837300000001
64.17902519667429 57.27177049687207 7.091486000000004
63.61771461731606 56.770870855907496 24.453411999999997
65.86295334612785 58.774466217369316 15.694242000000015
76.5278364108285 68.29154338371376 5.683763000000018
64.17902519667427 57.271770496872065 50.88733500000001
64.17902519667429 57.27177049687207 6.465831000000002
65.86295334612787 58.77446621736932 23.514930000000003
63.617714617316054 56.77087085590749 52.607886
66.98557450484428 59.77626549929845 33.368995999999996
65.86295334612787 58.77446621736932 16.163484000000015
65.86295334612785 58.774466217369316 46.664164
63.617714617316054 56.77087085590749 88.895875
65.86295334612787 58.77446621736932 10.376175000000007
67.5468814955814 60.277161937866545 11.001829999999996
64.7403357760325 57.772670137836634 79.51105100000001
65.30164276676962 58.273566576404725 65.2774
63.056404037957854 56.26997121494294 47.44623300000001
64.7403357760325 57.772670137836634 26.017550000000004
63.61771461731606 56.770870855907496 8.186382999999996
64.7403357760325 57.772670137836634 52.138645
66.42426392548606 59.27536585833387 17.57120700000001
64.7403357760325 57.772670137836634 29.145825000000002
65.30164276676962 58.273566576404725 68.249261
64.17902519667427 57.271770496872065 72.94167300000001
65.86295334612784 58.7744662173693 13.348036000000002
63.617714617316054 56.77087085590749 8.968451000000009
65.86295334612785 58.774466217369316 49.792439000000016
65.86295334612784 58.7744662173693 37.748581
66.98557450484428 59.77626549929845 22.889274999999998
63.61771461731606 56.770870855907496 78.41615400000002
64.7403357760325 57.772670137836634 71.53395000000002
63.617714617316054 56.77087085590749 48.54112900000001
65.30164276676962 58.273566576404725 56.674644
65.30164276676962 58.27356657640474 73.56732800000002
70.3534308037514 62.78165694029292 5.996589999999996
66.42426392548606 59.27536585833387 13.191622000000011
64.7403357760325 57.772670137836634 12.565966999999997
63.617714617316075 56.77087085590751 44.317958000000004
66.42426392548604 59.27536585833386 15.225001000000002
66.42426392548606 59.27536585833387 22.732861000000014
63.05640403795785 56.269971214942935 41.346097000000015
63.617714617316054 56.77087085590749 46.35133700000001
63.056404037957854 56.26997121494294 17.884035000000008
65.86295334612785 58.774466217369316 17.258380000000002
65.86295334612787 58.77446621736932 23.358516000000016
89.99926878369911 80.31311555248453 5.214521000000021
65.86295334612785 58.774466217369316 44.943613000000006
65.86295334612785 58.774466217369316 66.52871
63.05640403795785 56.269971214942935 59.959332
63.61771461731606 56.770870855907496 88.113807
65.86295334612785 58.774466217369316 10.532588999999998
64.17902519667429 57.27177049687207 7.873555000000014
64.17902519667427 57.271770496872065 43.535889
65.30164276676962 58.27356657640474 32.430513
63.05640403795785 56.269971214942935 65.120986
64.17902519667429 57.27177049687207 70.908295
65.30164276676962 58.27356657640474 21.168724000000008
64.7403357760325 57.772670137836634 28.20734200000001
65.30164276676962 58.27356657640474 25.235481
66.42426392548606 59.27536585833387 23.82775700000001
68.66950265429783 61.278961219795676 5.840176
64.17902519667429 57.27177049687207 75.913534
66.98557450484428 59.77626549929845 12.878794999999995
66.42426392548606 59.27536585833387 34.77671900000001
66.42426392548604 59.27536585833386 43.066648000000015
63.056404037957854 56.26997121494294 61.52347
61.93378646786251 55.26817513541027 29.927893
65.30164276676962 58.273566576404725 77.008431
64.1790251966743 57.27177049687209 57.143885
60.81116530914608 54.26637585348114 53.38995500000001
68.10819207493962 60.77806157883112 11.15824400000001
65.30164276676962 58.27356657640474 66.99795100000001
66.42426392548606 59.27536585833387 33.05616800000001
63.61771461731606 56.770870855907496 83.108567
66.42426392548606 59.27536585833387 34.307478
64.17902519667429 57.27177049687207 39.156304000000006
64.17902519667427 57.271770496872065 81.70084300000002
65.30164276676962 58.273566576404725 29.302238000000003
63.05640403795785 56.269971214942935 49.94885300000002
142.201066537107 126.89670530467406 1.7734189999999928
61.93378646786251 55.26817513541027 82.48291200000001
65.86295334612785 58.774466217369316 32.899754
66.42426392548606 59.27536585833387 20.543068999999996
66.42426392548606 59.27536585833387 40.407614000000024
65.86295334612784 58.7744662173693 34.46389200000001
65.86295334612785 58.774466217369316 61.99271100000001
64.17902519667429 57.27177049687207 64.02609000000001
64.74033577603248 57.77267013783662 13.03520900000001
60.81116530914607 54.26637585348113 81.07518800000001
141.6397595463699 126.39580886610597 2.555488000000018
65.30164276676962 58.273566576404725 58.864436
64.7403357760325 57.772670137836634 84.985532
65.86295334612785 58.774466217369316 73.72374200000003
65.86295334612785 58.774466217369316 33.52540900000002
139.95583139691632 124.89311314560872 3.1811430000000067
64.74033577603248 57.77267013783662 90.14718500000001
65.86295334612787 58.77446621736932 28.832996999999995
63.05640403795785 56.269971214942935 38.843477000000014
67.5468814955814 60.277161937866545 14.599346000000011
62.49509704722074 55.76907477637484 49.01037
65.30164276676962 58.273566576404725 48.38471500000001
63.056404037957854 56.26997121494294 56.205403000000004
66.42426392548606 59.27536585833387 13.973691
64.17902519667429 57.27177049687207 36.184443
65.86295334612785 58.774466217369316 63.713262
142.20106653710704 126.89670530467407 2.086247000000016
65.86295334612785 58.774466217369316 25.704722000000004
65.86295334612787 58.77446621736932 20.230241000000014
65.30164276676962 58.27356657640474 23.202102000000004
66.42426392548606 59.27536585833387 20.855895999999998
65.30164276676962 58.27356657640474 38.21782200000001
65.86295334612785 58.774466217369316 66.215882
65.30164276676962 58.27356657640474 29.77148000000001
63.05640403795785 56.269971214942935 51.356576000000004
65.86295334612785 58.774466217369316 31.022789000000014
66.42426392548606 59.27536585833387 24.140585
65.86295334612785 58.774466217369316 48.697543
64.74033577603248 57.77267013783662 53.077128000000016
66.98557450484427 59.77626549929844 14.755760000000002
64.7403357760325 57.772670137836634 72.78526
64.17902519667429 57.27177049687207 80.91877400000001
66.42426392548606 59.27536585833387 20.699481999999996
64.74033577603248 57.77267013783662 78.88539600000001
61.9337864678625 55.26817513541026 45.882095
64.74033577603248 57.77267013783662 89.052289
141.07844896701167 125.89490922514139 2.399074000000011
65.86295334612784 58.7744662173693 46.976992
64.7403357760325 57.772670137836634 55.11050600000001
62.49509704722074 55.76907477637484 66.059469
64.7403357760325 57.772670137836634 67.154365
65.86295334612785 58.774466217369316 43.69230300000002
66.42426392548604 59.27536585833386 19.13534500000001
65.30164276676962 58.273566576404725 84.359877
64.1790251966743 57.27177049687209 8.655624000000012
65.30164276676962 58.27356657640474 40.094787
62.49509704722074 55.76907477637484 48.22830200000002
65.86295334612785 58.774466217369316 32.586927
64.17902519667429 57.27177049687207 54.172024
65.30164276676962 58.27356657640474 31.17920300000001
64.7403357760325 57.772670137836634 83.734222
61.93378646786251 55.26817513541027 74.34939700000001
64.7403357760325 57.772670137836634 80.44953300000002
63.617714617316054 56.77087085590749 16.789139000000002
142.201066537107 126.89670530467406 1.9298330000000181
64.74033577603248 57.77267013783662 7.717140999999998
65.86295334612784 58.7744662173693 39.781959
65.86295334612785 58.774466217369316 68.405675
62.49509704722074 55.76907477637484 32.274099
64.74033577603248 57.77267013783662 55.26692000000001
66.42426392548606 59.27536585833387 10.063347999999996
64.7403357760325 57.772670137836634 86.23684200000001
65.86295334612785 58.774466217369316 22.576446999999998
65.86295334612784 58.7744662173693 34.151064000000005
65.86295334612785 58.774466217369316 42.75382000000001
10.293295705191728 9.18548182178884 83.421394
65.30164276676962 58.273566576404725 75.600707
12.538534434003516 11.189077183250655 3.6503840000000003
142.201066537107 126.89670530467406 2.2426600000000096
65.30164276676962 58.27356657640474 69.813398
61.37247588850429 54.767275494445705 60.11574600000001
65.86295334612785 58.774466217369316 27.738101000000004
62.49509704722074 55.76907477637484 73.098087
62.49509704722074 55.76907477637484 76.53918900000001
64.74033577603248 57.77267013783662 89.990772
61.372475888504304 54.76727549444571 69.50057100000001
64.17902519667427 57.271770496872065 85.611187
64.74033577603248 57.77267013783662 42.440993
65.86295334612785 58.774466217369316 60.584987
69.79212022439317 62.28075729932834 6.153004000000003
66.42426392548606 59.27536585833387 24.766240000000003
64.74033577603248 57.77267013783662 74.818638
65.86295334612785 58.774466217369316 68.718502
64.7403357760325 57.772670137836634 27.268860000000014
64.74033577603248 57.77267013783662 67.310778
65.86295334612785 58.774466217369316 35.558788
65.30164276676962 58.273566576404725 21.325137000000012
63.61771461731606 56.770870855907496 26.643205000000002
65.30164276676962 58.27356657640474 58.23878100000001
141.6397595463699 126.39580886610597 2.8683150000000146
64.7403357760325 57.772670137836634 26.956032
66.42426392548606 59.27536585833387 11.471070999999998
63.617714617316054 56.77087085590749 41.658924000000006
66.42426392548606 59.27536585833387 15.068587000000011
63.61771461731606 56.770870855907496 28.520169999999997
65.30164276676962 58.27356657640474 38.530649
62.495097047220725 55.769074776374836 53.23354100000002
65.30164276676962 58.27356657640474 78.25974099999999
64.74033577603248 57.77267013783662 80.293119
63.617714617316054 56.77087085590749 51.82581799999999
65.86295334612785 58.774466217369316 47.915474
63.617714617316054 56.77087085590749 45.725682
65.86295334612785 58.774466217369316 10.689002999999998
61.93378646786251 55.26817513541027 34.933133000000005
61.372475888504304 54.76727549444571 77.321258
64.17902519667427 57.271770496872065 75.44429300000002
67.5468814955814 60.277161937866545 18.66610400000001
64.7403357760325 57.772670137836634 71.690363
61.37247588850429 54.767275494445705 76.69560299999999
64.7403357760325 57.772670137836634 36.340857
66.42426392548606 59.27536585833387 18.353276
65.86295334612784 58.7744662173693 23.04568800000001
66.42426392548606 59.27536585833387 12.722381000000004
65.86295334612785 58.774466217369316 46.820578
63.05640403795785 56.269971214942935 62.30553900000001
83.82486317662202 74.80322910906371 5.527349
84.94748074671736 75.80502518859639 5.370935000000005
65.86295334612785 58.774466217369316 58.708022
62.49509704722074 55.76907477637484 27.112446000000006
63.617714617316054 56.77087085590749 67.78002
65.30164276676962 58.273566576404725 68.87491600000001
65.30164276676962 58.273566576404725 36.81009800000001
61.93378646786251 55.26817513541027 51.51299000000001
64.74033577603248 57.77267013783662 7.404314000000002
66.98557450484428 59.77626549929845 14.44293200000001
65.30164276676962 58.273566576404725 42.910234
65.86295334612785 58.774466217369316 30.86637600000001
64.74033577603248 57.77267013783662 79.354637
65.30164276676962 58.27356657640474 72.31601800000001
64.7403357760325 57.772670137836634 40.876855
63.61771461731606 56.770870855907496 37.904994
66.42426392548604 59.27536585833386 37.12292600000001
65.86295334612785 58.774466217369316 39.469132000000016
64.7403357760325 57.772670137836634 31.335617000000006
63.61771461731606 56.770870855907496 57.456712
66.98557450484428 59.77626549929845 11.314658000000007
60.81116530914608 54.26637585348114 70.751881
64.17902519667429 57.27177049687207 72.15960500000001
66.42426392548606 59.27536585833387 25.39189500000001
65.86295334612785 58.774466217369316 45.569268
65.86295334612785 58.774466217369316 25.079067000000006
66.42426392548606 59.27536585833387 14.286518999999998
62.49509704722074 55.76907477637484 61.054229
63.05640403795787 56.26997121494295 84.51629
64.7403357760325 57.772670137836634 8.812038000000008
64.17902519667427 57.271770496872065 90.61642700000002
64.7403357760325 57.772670137836634 81.231602
64.74033577603248 57.77267013783662 8.342796
65.86295334612785 58.774466217369316 41.81533800000001
15.90639432153172 14.194471826641589 9.281278999999998
65.86295334612785 58.774466217369316 63.400435
9.731988714454607 8.684585383220744 87.17532400000002
65.30164276676962 58.273566576404725 31.64844400000001
65.86295334612785 58.774466217369316 68.09284700000002
66.42426392548606 59.27536585833387 38.061408
63.056404037957854 56.26997121494294 82.795739
66.42426392548606 59.27536585833387 18.978930999999996
60.81116530914607 54.26637585348113 57.925954000000004
66.42426392548606 59.27536585833387 18.509689999999996
63.056404037957854 56.26997121494294 50.10526600000001
65.86295334612785 58.774466217369316 18.040448999999995
65.30164276676962 58.27356657640474 59.33367700000001
124.23916029523392 110.86794561537612 3.806797999999994
65.30164276676962 58.273566576404725 44.00513000000001
64.7403357760325 57.772670137836634 72.003191
66.42426392548606 59.27536585833388 12.253140000000009
65.30164276676962 58.27356657640474 28.050928
64.74033577603248 57.77267013783662 6.622245000000012
65.30164276676962 58.273566576404725 66.685123
11.415916863908175 10.187281103717988 4.901693999999999
61.372475888504304 54.76727549444571 86.862497
66.42426392548606 59.27536585833387 19.761000000000003
64.7403357760325 57.772670137836634 72.628846
65.30164276676962 58.27356657640474 45.256440000000005
66.42426392548606 59.27536585833387 43.223062000000006
65.86295334612784 58.7744662173693 33.83823700000001
63.61771461731606 56.770870855907496 81.85725700000002
64.17902519667427 57.271770496872065 83.890636
65.30164276676962 58.273566576404725 75.13146599999999
142.20106653710704 126.89670530467407 2.711902000000032
65.86295334612785 58.774466217369316 26.799618
66.42426392548606 59.27536585833387 24.296998000000013
64.17902519667429 57.27177049687207 63.86967599999999
65.30164276676962 58.273566576404725 85.454773
66.42426392548606 59.27536585833387 9.906934000000007
11.97722744326639 10.688180744682555 4.276039000000001
65.30164276676962 58.27356657640474 84.047049
63.05640403795787 56.26997121494295 51.982231000000006
62.495097047220725 55.769074776374836 82.639326
64.17902519667429 57.27177049687207 63.087607000000006
63.05640403795787 56.26997121494295 50.730921
64.7403357760325 57.772670137836634 54.79767900000001
63.617714617316054 56.77087085590749 47.602647000000005
65.86295334612785 58.774466217369316 36.96651200000002
67.5468814955814 60.277161937866545 9.594105999999995
65.86295334612784 58.7744662173693 21.481551000000014
63.056404037957854 56.26997121494294 26.486791
60.81116530914608 54.26637585348114 53.702783000000004
66.42426392548606 59.27536585833387 35.402373999999995
64.74033577603248 57.77267013783662 74.03657
64.17902519667429 57.27177049687207 71.84677699999999
65.30164276676962 58.27356657640474 44.161544
64.17902519667427 57.271770496872065 79.82387800000001
64.17902519667427 57.271770496872065 88.583048
64.7403357760325 57.772670137836634 32.743341
65.30164276676962 58.27356657640474 27.425273000000008
60.81116530914608 54.26637585348114 86.549669
66.42426392548606 59.27536585833387 20.073827000000012
67.54688149558139 60.27716193786653 9.750520000000012
64.7403357760325 57.772670137836634 87.488152
63.056404037957854 56.26997121494294 66.372296
61.37247588850429 54.767275494445705 75.28787900000002
64.17902519667429 57.27177049687207 87.331738
65.30164276676962 58.273566576404725 58.551609
64.7403357760325 57.772670137836634 10.219761000000004
61.93378646786251 55.26817513541027 69.969812
65.30164276676962 58.27356657640474 17.414794000000015
65.86295334612785 58.774466217369316 36.653684000000005
65.86295334612785 58.774466217369316 22.107205999999994
63.056404037957854 56.26997121494294 48.071888
63.61771461731606 56.770870855907496 16.319897000000008
65.30164276676962 58.27356657640474 73.410915
66.42426392548606 59.27536585833387 17.101966
62.49509704722074 55.76907477637484 7.560727999999999
138.27189965884168 123.39041422271502 3.4939699999999982
61.372475888504304 54.76727549444571 69.656985
63.617714617316054 56.77087085590749 77.634086
60.81116530914607 54.26637585348113 87.800979
64.7403357760325 57.772670137836634 57.300299
66.42426392548606 59.27536585833387 37.435753
63.61771461731606 56.770870855907496 64.651745
65.30164276676962 58.27356657640474 64.33891700000001
66.42426392548606 59.27536585833387 20.386655000000005
65.30164276676963 58.27356657640475 35.871616
63.617714617316054 56.77087085590749 63.24402100000001
60.24985831840895 53.76547941491303 62.618366
66.98557450484428 59.77626549929845 10.845416000000002
65.86295334612785 58.774466217369316 63.556849
63.617714617316054 56.77087085590749 85.298359
65.86295334612785 58.774466217369316 25.861136000000002
64.7403357760325 57.772670137836634 38.687063000000016
64.17902519667429 57.27177049687207 22.420033000000004
63.056404037957854 56.26997121494294 74.50581100000001
61.372475888504304 54.76727549444571 89.208703
64.74033577603248 57.77267013783662 46.507750000000016
64.74033577603248 57.77267013783662 78.103327
64.17902519667429 57.27177049687207 88.27022000000001
65.30164276676962 58.27356657640474 43.37947500000001
65.30164276676962 58.273566576404725 56.51823000000001
123.67784971587571 110.36704597441155 3.9632110000000162
63.617714617316075 56.77087085590751 47.133405
65.30164276676962 58.27356657640474 23.671343
63.61771461731606 56.770870855907496 88.73946200000002
66.42426392548606 59.27536585833388 14.912174000000004
65.30164276676962 58.27356657640474 70.439053
63.617714617316054 56.77087085590749 71.064708
63.05640403795785 56.269971214942935 78.57256800000002
64.17902519667427 57.271770496872065 85.924014
65.86295334612785 58.774466217369316 58.08236700000001
65.30164276676962 58.27356657640474 59.02085
63.056404037957854 56.26997121494294 64.808159
66.42426392548606 59.27536585833387 33.994651000000005
63.61771461731606 56.770870855907496 71.221122
62.49509704722074 55.76907477637484 62.931194000000005
61.372475888504304 54.76727549444571 60.27215999999999
61.93378646786251 55.26817513541027 47.28981900000001
64.17902519667429 57.27177049687207 41.03326899999999
139.95583139691632 124.89311314560872 3.024729
63.61771461731606 56.770870855907496 60.897814999999994
62.49509704722074 55.76907477637484 84.672704
64.74033577603248 57.77267013783662 32.11768599999999
65.86295334612785 58.774466217369316 37.59216700000002
63.61771461731606 56.770870855907496 64.964572
65.86295334612785 58.774466217369316 56.048989000000006
65.30164276676962 58.27356657640474 18.196861999999996
66.42426392548606 59.27536585833387 41.502510000000015
65.30164276676962 58.273566576404725 85.14194500000002
60.24985831840895 53.76547941491303 59.646505000000005
64.7403357760325 57.772670137836634 67.623606
63.056404037957854 56.26997121494294 54.484851000000006
65.30164276676963 58.27356657640475 15.381414999999999
10.293295705191742 9.185481821788853 4.119625000000002
61.93378646786251 55.26817513541027 76.226362
63.61771461731606 56.770870855907496 54.328438000000006
63.05640403795785 56.269971214942935 86.70608300000002
65.30164276676962 58.273566576404725 21.950791999999996
62.495097047220725 55.769074776374836 44.630784999999996
61.93378646786251 55.26817513541027 26.330377000000006
65.30164276676962 58.273566576404725 30.084307000000017
66.42426392548606 59.27536585833387 15.850656000000017
66.42426392548606 59.27536585833387 17.727621000000006
64.7403357760325 57.772670137836634 8.499209999999998
65.30164276676962 58.27356657640474 68.562088
64.7403357760325 57.772670137836634 76.852017
62.49509704722074 55.76907477637484 82.01367100000002
65.86295334612785 58.774466217369316 38.99989100000001
64.74033577603248 57.77267013783662 73.254501
65.30164276676962 58.27356657640474 42.284579000000015
64.74033577603248 57.77267013783662 31.961272000000008
62.49509704722074 55.76907477637484 65.746641
64.7403357760325 57.772670137836634 40.2512
62.49509704722074 55.76907477637484 54.641265
64.74033577603248 57.77267013783662 89.67794400000001
64.17902519667429 57.27177049687207 57.613126
10.854606284549957 9.68638146275342 5.058108
11.415916863908175 10.187281103717988 4.745280000000003
64.74033577603248 57.77267013783662 81.388016
64.17902519667429 57.27177049687207 45.41285400000001
61.93378646786251 55.26817513541027 74.975052
61.372475888504304 54.76727549444571 55.42333399999999
64.7403357760325 57.772670137836634 79.66746400000001
66.42426392548606 59.27536585833387 60.741401
66.42426392548604 59.27536585833386 21.012310000000003
65.86295334612785 58.774466217369316 42.597407
63.61771461731606 56.770870855907496 84.203463
64.7403357760325 57.772670137836634 90.460013
64.17902519667429 57.27177049687207 66.84153700000002
11.415916863908173 10.187281103717986 4.432453000000002
64.7403357760325 57.772670137836634 69.03133000000001
63.617714617316054 56.77087085590749 51.043749
61.93378646786251 55.26817513541027 38.37423600000001
64.17902519667429 57.27177049687207 37.27933899999999
65.30164276676962 58.273566576404725 65.590227
65.86295334612785 58.774466217369316 61.836297
63.617714617316054 56.77087085590749 33.681823000000016
61.93378646786251 55.26817513541027 48.853956
63.61771461731606 56.770870855907496 46.038509000000005
66.98557450484428 59.77626549929845 12.096726000000004
10.85460628454996 9.68638146275342 80.605947
60.24985831840895 53.76547941491303 59.49009100000001
60.81116530914608 54.26637585348114 64.182504
63.056404037957854 56.26997121494294 52.29505900000001
65.30164276676962 58.27356657640474 39.31271799999999
65.86295334612785 58.774466217369316 50.26168
66.42426392548606 59.27536585833387 27.894515000000006
65.86295334612785 58.774466217369316 53.859196
65.30164276676962 58.27356657640474 28.67658300000001
62.495097047220725 55.769074776374836 62.14912500000001
62.49509704722074 55.76907477637484 30.70996199999999
9.731988714454618 8.684585383220755 87.644565
64.17902519667429 57.27177049687207 55.73616100000001
63.61771461731606 56.770870855907496 82.95215300000001
63.056404037957854 56.26997121494294 29.615066000000002
64.17902519667427 57.271770496872065 89.365117
60.81116530914608 54.26637585348114 72.472432
61.372475888504304 54.76727549444571 49.166783999999986
63.05640403795787 56.26997121494295 59.177264
64.17902519667429 57.27177049687207 79.198223
62.49509704722074 55.76907477637484 65.90305500000001
62.49509704722074 55.76907477637484 85.7676
61.93378646786251 55.26817513541027 79.980292
65.30164276676962 58.273566576404725 71.377536
63.05640403795787 56.26997121494295 36.028029
66.42426392548606 59.27536585833387 19.291759
65.30164276676962 58.27356657640474 36.497271000000005
64.17902519667429 57.27177049687207 61.210642000000014
64.17902519667427 57.271770496872065 74.192983
62.49509704722074 55.76907477637484 87.95739300000001
64.74033577603248 57.77267013783662 87.01891000000002
65.30164276676962 58.27356657640474 50.418093999999996
63.056404037957854 56.26997121494294 30.240721
65.30164276676962 58.273566576404725 77.790499
62.49509704722074 55.76907477637484 6.7786589999999975
64.17902519667429 57.27177049687207 86.08042800000001
60.24985831840893 53.765479414913024 69.18774299999998
61.93378646786251 55.26817513541027 43.84871700000001
64.17902519667429 57.27177049687207 77.94691300000001
61.93378646786251 55.26817513541027 65.43381400000001
63.05640403795785 56.269971214942935 56.831058
61.37247588850429 54.767275494445705 90.303599
64.7403357760325 57.772670137836634 60.428574000000005
65.86295334612785 58.774466217369316 41.189683
64.74033577603248 57.77267013783662 69.344157
64.7403357760325 57.772670137836634 78.72898200000002
63.05640403795785 56.269971214942935 51.20016300000001
64.17902519667429 57.27177049687207 46.194922999999996
61.93378646786251 55.26817513541027 33.212582000000005
61.372475888504304 54.76727549444571 76.38277600000002
60.81116530914608 54.26637585348114 53.546369000000006
68.63101899270112 -49.31736999021942 13.973691
68.63101899270112 -49.31736999021942 15.694241999999994
151.10701020850897 -108.58355944505848 3.3375570000000288
66.79822014267594 -48.00034424397554 40.720442000000006
69.24195324466935 -49.75637950787235 16.945552
67.40915439464419 -48.43935376162849 7.247900000000006
66.18728589070768 -47.561334726322585 73.098087
62.52168819065736 -44.927283233834835 82.170084
65.57635554461902 -47.12232801538461 47.60264700000001
66.79822014267596 -48.00034424397555 30.39713500000001
64.96542129265077 -46.68331849773166 80.76236100000001
64.96542129265079 -46.68331849773167 57.613125999999994
65.57635554461902 -47.12232801538461 23.045688000000016
64.96542129265079 -46.68331849773167 22.263620000000007
64.35448704068253 -46.24430898007871 13.660864000000002
66.79822014267596 -48.00034424397555 36.18444300000001
66.18728589070767 -47.56133472632258 83.264981
63.13262244262562 -45.3662927514878 67.78002000000001
68.63101899270112 -49.31736999021942 35.715202
67.4091543946442 -48.4393537616285 19.448171999999996
66.18728589070768 -47.561334726322585 44.00513000000001
74.74035370062444 -53.70745955331896 5.527348999999999
68.02008864661246 -48.87836327928145 54.01561
68.6310189927011 -49.31736999021941 38.217822000000005
68.63101899270112 -49.31736999021942 21.012309999999996
68.02008864661246 -48.87836327928145 31.022789
61.910753938689126 -44.4882737161819 64.182504
64.35448704068251 -46.244308980078706 27.112446000000006
66.79822014267594 -48.00034424397554 66.059469
68.02008864661246 -48.87836327928145 53.077128
64.96542129265077 -46.68331849773166 90.77284
68.63101899270112 -49.31736999021942 13.504450000000006
64.96542129265077 -46.68331849773166 46.19492300000001
65.57635554461903 -47.12232801538462 72.78526
64.35448704068253 -46.24430898007871 84.35987700000001
68.63101899270112 -49.31736999021942 40.564028
65.57635554461902 -47.12232801538461 80.918774
63.74355278871428 -45.805299462425765 68.874916
13.036095804700409 -9.367571244960388 4.588866000000001
68.02008864661246 -48.87836327928145 38.999891000000005
64.96542129265079 -46.68331849773167 60.584987
66.79822014267596 -48.00034424397555 6.309417999999996
65.57635554461903 -47.12232801538462 16.007070000000006
68.63101899270112 -49.317369990219426 37.592166999999996
66.79822014267596 -48.00034424397555 67.15436500000001
67.40915439464419 -48.43935376162849 53.702783
68.02008864661246 -48.87836327928145 22.73286100000001
63.74355278871429 -45.80529946242578 15.53782900000001
65.57635554461903 -47.12232801538462 51.66940400000002
65.57635554461903 -47.12232801538462 83.577808
68.02008864661246 -48.87836327928145 63.869676000000005
68.02008864661246 -48.87836327928145 52.29505900000001
68.63101899270112 -49.31736999021942 12.409553999999998
69.24195324466935 -49.75637950787236 19.917414000000008
64.35448704068253 -46.24430898007871 64.495331
68.02008864661246 -48.87836327928145 23.671343000000004
66.18728589070768 -47.561334726322585 84.047049
64.35448704068253 -46.24430898007871 48.228302
68.02008864661246 -48.87836327928145 11.001830000000007
69.24195324466935 -49.75637950787235 34.620306
63.74355278871428 -45.805299462425765 88.895875
69.24195324466935 -49.75637950787236 14.755760000000002
68.02008864661246 -48.87836327928145 17.101966000000015
63.13262244262562 -45.3662927514878 88.739462
66.18728589070768 -47.561334726322585 16.47631100000001
67.4091543946442 -48.4393537616285 54.954093000000015
64.96542129265079 -46.68331849773167 78.10332700000001
63.74355278871428 -45.805299462425765 61.67988400000001
64.96542129265079 -46.68331849773167 43.379475000000006
67.40915439464419 -48.43935376162849 53.546369
67.40915439464419 -48.43935376162849 11.314657999999993
62.521688190657365 -44.92728323383484 79.041809
68.02008864661245 -48.878363279281444 18.822517000000012
67.40915439464419 -48.43935376162849 54.484851
63.74355278871428 -45.805299462425765 63.55684900000001
67.40915439464419 -48.43935376162849 8.968451000000012
64.35448704068251 -46.244308980078706 73.567328
68.02008864661246 -48.87836327928145 21.481551000000014
68.63101899270112 -49.31736999021942 23.984171000000007
69.24195324466935 -49.75637950787236 7.560728000000014
68.02008864661246 -48.87836327928145 27.581687000000002
68.02008864661246 -48.87836327928145 52.92071400000001
67.40915439464419 -48.43935376162849 20.699482000000003
69.24195324466935 -49.75637950787236 7.717140999999999
66.79822014267596 -48.00034424397555 84.829118
68.02008864661246 -48.87836327928145 28.363756000000006
64.96542129265077 -46.68331849773166 47.75906000000001
68.6310189927011 -49.31736999021941 19.29175900000001
66.79822014267596 -48.00034424397555 75.444293
67.40915439464419 -48.43935376162848 69.34415700000001
68.02008864661246 -48.87836327928145 32.274099
66.79822014267596 -48.00034424397555 88.426634
68.02008864661246 -48.87836327928145 37.435753000000005
66.79822014267596 -48.00034424397555 25.391895
68.02008864661245 -48.878363279281444 35.40237400000001
68.02008864661246 -48.87836327928145 31.804858
61.910753938689126 -44.4882737161819 39.469131999999995
68.02008864661246 -48.87836327928145 10.063348000000007
66.79822014267596 -48.00034424397555 58.551609000000006
64.35448704068251 -46.244308980078706 45.56926800000001
68.02008864661246 -48.87836327928145 13.817277000000004
65.57635554461903 -47.12232801538462 64.65174500000002
66.18728589070768 -47.561334726322585 9.437692999999996
64.96542129265077 -46.68331849773166 90.303599
65.57635554461902 -47.12232801538461 44.16154400000001
65.57635554461903 -47.12232801538462 50.887335
68.02008864661246 -48.87836327928145 6.465831000000008
68.02008864661245 -48.878363279281444 60.741401
68.02008864661246 -48.87836327928145 23.514929999999993
68.02008864661245 -48.878363279281444 52.60788600000002
68.63101899270112 -49.31736999021942 38.37423600000002
66.18728589070768 -47.561334726322585 46.66416400000001
67.40915439464419 -48.43935376162848 79.511051
64.96542129265079 -46.68331849773167 26.01755
64.35448704068253 -46.24430898007871 90.616427
67.4091543946442 -48.4393537616285 50.73092100000001
66.79822014267596 -48.00034424397555 79.82387800000001
64.35448704068253 -46.24430898007871 60.11574600000001
64.96542129265079 -46.68331849773167 51.35657599999998
67.40915439464419 -48.43935376162849 45.25643999999999
13.036095804700409 -9.367571244960388 64.02609
68.02008864661245 -48.878363279281444 13.34803600000001
65.57635554461903 -47.12232801538462 29.771480000000004
64.35448704068253 -46.24430898007871 49.323198000000005
68.02008864661246 -48.87836327928145 8.342796000000003
67.40915439464419 -48.43935376162849 68.405675
67.40915439464419 -48.43935376162849 74.975052
67.40915439464419 -48.43935376162849 16.632725000000004
65.57635554461903 -47.12232801538462 31.492031
64.96542129265077 -46.68331849773166 89.52153
64.96542129265079 -46.68331849773167 29.45865200000001
66.18728589070768 -47.561334726322585 5.996590000000013
64.96542129265077 -46.68331849773166 48.54112900000001
67.40915439464419 -48.43935376162848 70.126226
69.24195324466935 -49.75637950787236 13.191622000000006
68.63101899270112 -49.31736999021942 12.565967000000008
66.79822014267596 -48.00034424397555 45.72568199999999
63.13262244262561 -45.366292751487784 44.31795799999999
69.24195324466935 -49.75637950787235 9.281279000000014
61.29981968672086 -44.04926419852894 86.393255
66.18728589070768 -47.561334726322585 15.225001000000004
68.63101899270112 -49.31736999021942 24.76624000000002
64.96542129265077 -46.68331849773166 46.35133700000001
66.79822014267596 -48.00034424397555 17.884035000000004
69.24195324466935 -49.75637950787236 33.99465100000001
68.63101899270112 -49.31736999021942 17.25838
63.13262244262562 -45.3662927514878 27.26886
66.79822014267596 -48.00034424397555 23.358516000000016
68.02008864661246 -48.87836327928145 31.648443999999998
68.63101899270112 -49.31736999021942 35.55878800000001
65.57635554461903 -47.12232801538462 38.061408
67.4091543946442 -48.4393537616285 21.32513700000001
67.40915439464419 -48.43935376162849 8.655623999999994
64.96542129265077 -46.68331849773166 11.783899000000005
69.24195324466935 -49.75637950787236 17.571206999999998
67.40915439464419 -48.43935376162848 82.79573900000001
65.57635554461903 -47.12232801538462 24.453412000000007
68.63101899270112 -49.317369990219426 32.43051299999999
66.79822014267594 -48.00034424397554 71.221122
64.35448704068253 -46.24430898007871 58.238781
66.18728589070768 -47.561334726322585 21.16872400000001
68.63101899270112 -49.31736999021942 25.235481000000007
66.79822014267594 -48.00034424397554 23.827757000000005
153.55074331050238 -110.33959470895532 2.8683149999999924
68.63101899270112 -49.31736999021942 14.28651900000001
64.35448704068253 -46.24430898007871 56.831058000000006
66.79822014267596 -48.00034424397555 65.90305500000001
63.13262244262561 -45.366292751487784 50.574507999999994
69.85288749663762 -50.19538902552532 34.46389200000001
66.79822014267596 -48.00034424397555 43.06664800000001
68.02008864661246 -48.87836327928145 61.52347
68.63101899270112 -49.317369990219426 18.353276000000008
69.24195324466935 -49.75637950787236 34.933133000000005
66.79822014267596 -48.00034424397555 11.471071000000011
67.40915439464419 -48.43935376162849 53.389955000000015
68.02008864661245 -48.878363279281444 33.05616800000001
64.35448704068253 -46.24430898007871 47.446233
11.814227300763902 -8.489552209654484 82.326498
65.57635554461903 -47.12232801538462 53.233540999999995
68.63101899270112 -49.317369990219426 29.302238
65.57635554461902 -47.12232801538461 18.040449000000006
65.57635554461903 -47.12232801538462 51.82581799999999
68.02008864661246 -48.87836327928145 60.897815
155.38354216052755 -111.65662045519919 1.7734190000000125
66.79822014267596 -48.00034424397555 82.482912
63.74355278871428 -45.805299462425765 47.915473999999996
68.63101899270112 -49.31736999021942 32.89975400000001
66.18728589070767 -47.56133472632258 57.925954000000004
67.40915439464419 -48.43935376162849 66.37229600000002
66.18728589070767 -47.56133472632258 81.07518800000001
66.79822014267596 -48.00034424397555 44.943613000000006
68.63101899270112 -49.31736999021942 21.95079200000001
64.96542129265079 -46.68331849773167 41.033269
68.02008864661246 -48.87836327928145 42.75382
66.79822014267596 -48.00034424397555 84.98553200000002
68.02008864661246 -48.87836327928145 28.520169999999997
151.107010208509 -108.5835594450585 3.1811430000000174
64.35448704068253 -46.24430898007871 71.69036300000002
66.79822014267596 -48.00034424397555 69.50057100000001
66.18728589070768 -47.561334726322585 76.695603
66.79822014267594 -48.00034424397554 88.27022000000001
69.24195324466935 -49.75637950787236 38.84347700000001
67.40915439464419 -48.43935376162849 14.599346000000011
66.79822014267596 -48.00034424397555 45.100027
68.02008864661246 -48.87836327928145 10.53258900000001
66.79822014267594 -48.00034424397554 56.205403000000004
65.57635554461902 -47.12232801538461 44.47437200000001
64.35448704068251 -46.244308980078706 63.087607
68.63101899270112 -49.317369990219426 36.028029
67.40915439464419 -48.43935376162849 42.12816500000001
63.13262244262562 -45.3662927514878 81.70084300000002
69.85288749663762 -50.19538902552532 5.840176000000013
67.40915439464419 -48.43935376162849 12.253139999999998
154.7726079085593 -111.21761093754624 2.086247000000016
68.63101899270112 -49.31736999021942 33.838237
68.02008864661246 -48.87836327928145 24.609826000000005
68.63101899270112 -49.31736999021942 15.068587000000013
61.29981968672086 -44.04926419852894 66.215882
67.40915439464419 -48.43935376162849 11.940313000000014
67.40915439464419 -48.43935376162849 42.597407000000004
66.18728589070768 -47.561334726322585 6.93507300000001
65.57635554461903 -47.12232801538462 74.19298300000001
65.57635554461903 -47.12232801538462 37.27933899999999
64.35448704068253 -46.24430898007871 48.69754300000001
66.79822014267596 -48.00034424397555 21.794378000000005
64.96542129265079 -46.68331849773167 62.77478000000001
67.40915439464419 -48.43935376162848 28.20734200000001
66.1872858907077 -47.5613347263226 47.289818999999994
64.35448704068253 -46.24430898007871 29.927893
67.40915439464419 -48.43935376162849 51.51299000000001
68.02008864661246 -48.87836327928145 35.245960999999994
66.18728589070767 -47.56133472632258 13.035209000000005
68.63101899270112 -49.31736999021942 22.107205999999998
67.40915439464419 -48.43935376162849 43.69230300000002
60.6888893406322 -43.610257487590964 57.76954
66.18728589070767 -47.56133472632258 73.880156
66.79822014267596 -48.00034424397555 52.45147300000001
68.02008864661245 -48.878363279281444 40.876855000000006
68.02008864661245 -48.878363279281444 14.130104999999997
64.35448704068253 -46.24430898007871 62.46195200000001
68.02008864661245 -48.878363279281444 32.58692700000002
66.18728589070768 -47.561334726322585 81.54442900000001
66.18728589070768 -47.561334726322585 83.734222
69.24195324466935 -49.75637950787235 20.230241
63.13262244262561 -45.366292751487784 74.349397
66.79822014267596 -48.00034424397555 12.722381000000015
66.18728589070768 -47.561334726322585 80.449533
69.24195324466935 -49.75637950787236 34.307478
68.02008864661246 -48.87836327928145 31.335616999999996
67.40915439464419 -48.43935376162849 28.989411000000015
69.24195324466935 -49.75637950787236 19.604586000000005
68.63101899270112 -49.31736999021942 9.594106000000005
151.107010208509 -108.5835594450585 3.493970000000017
64.96542129265079 -46.68331849773167 49.16678400000001
67.40915439464419 -48.43935376162849 26.173962999999997
66.18728589070768 -47.561334726322585 72.159605
63.13262244262561 -45.366292751487784 71.846777
65.57635554461903 -47.12232801538462 80.136706
66.18728589070768 -47.561334726322585 39.938373
68.02008864661246 -48.87836327928145 22.57644700000001
71.07475209469452 -51.07340525411624 5.683763000000003
68.02008864661245 -48.878363279281444 34.77671899999999
64.35448704068253 -46.24430898007871 28.676583
67.40915439464419 -48.43935376162849 56.361816000000005
68.02008864661246 -48.87836327928145 34.15106400000001
66.79822014267596 -48.00034424397555 20.386655000000005
66.79822014267594 -48.00034424397554 76.539189
67.40915439464419 -48.43935376162849 75.600707
68.02008864661246 -48.87836327928145 26.799618000000006
149.88514561045207 -107.70554321646758 3.6503839999999963
68.02008864661246 -48.87836327928145 30.55354800000002
69.24195324466935 -49.75637950787235 31.179203000000008
154.77260790855928 -111.21761093754623 2.2426600000000096
67.40915439464419 -48.43935376162849 29.145825000000002
65.57635554461902 -47.12232801538461 49.01037000000001
66.79822014267594 -48.00034424397554 39.156304
68.63101899270112 -49.31736999021942 27.738101000000007
65.57635554461902 -47.12232801538461 78.416154
66.79822014267594 -48.00034424397554 87.80097899999998
65.57635554461903 -47.12232801538462 41.815338000000004
68.02008864661246 -48.87836327928145 20.543069000000017
66.18728589070767 -47.56133472632258 76.226362
63.74355278871428 -45.805299462425765 64.808159
68.63101899270112 -49.31736999021942 61.83629700000001
69.85288749663762 -50.19538902552532 7.873555000000014
64.96542129265079 -46.68331849773167 63.400434999999995
63.13262244262561 -45.366292751487784 87.175324
61.910753938689126 -44.4882737161819 82.013671
66.18728589070768 -47.561334726322585 43.535889
67.40915439464419 -48.43935376162849 26.643205000000005
63.13262244262561 -45.366292751487784 70.908295
60.68888934063221 -43.61025748759098 86.706083
64.35448704068253 -46.24430898007871 62.931194000000005
64.35448704068253 -46.24430898007871 65.2774
67.40915439464419 -48.43935376162849 26.956032000000008
62.52168819065736 -44.927283233834835 86.08042800000001
68.02008864661246 -48.87836327928145 36.497271000000005
67.40915439464419 -48.43935376162849 11.158244000000003
65.57635554461903 -47.12232801538462 41.65892400000001
68.6310189927011 -49.31736999021941 18.509690000000003
64.96542129265077 -46.68331849773166 52.138645000000004
66.79822014267594 -48.00034424397554 87.48815200000001
65.57635554461902 -47.12232801538461 78.259741
