ply
format ascii 1.0
element vertex 836
property float32 x
property float32 y
property float32 z
element face 0
property list uint8 int32 vertex_indices
end_header
-6.6277858766841975 -7.386741427162804 64.98480295047077
-6.14659731813018 -6.8504514012203925 68.88129360411142
-5.162471323713366 -5.753631982524371 68.29731133470291
-5.164426576203755 -5.755811133275472 70.56725465116624
-6.931115544163222 3.8968253899638636 4.432764731533301
-7.567554083903573 4.25464511537592 4.795119870786286
-7.81641560754372 4.394560529817781 5.605160528167725
-7.9500675642891565 4.4697025953547715 7.628356792883924
-7.664528361204536 4.309166183961773 6.87488450540109
-9.881269997046308 5.5554670188703215 10.804648550776566
-9.383364657638712 5.275533701348873 9.25124377415763
-9.15880156699995 5.149279399617197 10.507079731257528
-6.8724505136642895 3.8638426213323758 9.657464494646732
-10.03702422135813 5.643035464674627 12.64690714270394
-9.561943313484441 5.375934543864227 12.104079404563363
-11.344034632195656 6.3778654240724055 15.344383176213201
-10.86595989210138 6.109081305032782 14.802326483973308
-10.218534631195402 5.7450846036753855 13.4520155069383
-7.65982783380916 4.306523444220412 9.933281283391807
-12.139754196667921 6.825236439945559 17.507337144494937
-11.985691418673355 6.73861896241077 16.695985439398665
-11.174890072839183 6.282768637808381 16.42478161470178
-10.387488216476733 5.840074020119921 14.260362404101246
-11.889408034662202 6.684486329206831 21.310288994149793
-12.54901923132443 7.055334231291276 19.948153839107746
-10.372478697737305 5.831635339024178 19.686156307371252
-13.591211541736739 7.641277638317553 24.561001629955925
-10.672826581409252 6.000497515892715 22.926928853839485
-12.66758083246294 7.121992167470162 24.290912289080143
-11.716758177804945 6.587418787699527 24.016162479636456
-10.014257742117683 5.630235650015792 20.765115325794106
-12.826640070210129 7.211418764417245 25.913394810341227
-10.735871346355216 6.035942667424291 23.733988058198033
-12.263299191383322 6.894696149445764 32.05381327351042
-12.029579432117682 6.7632937675002545 28.050136514030353
-12.443506437681132 6.996012621282701 26.986512504816194
-10.653243847602296 5.989487672842541 31.958655809078223
-11.15358656891136 6.27079134000225 30.937278957133717
-11.6304431152174 6.538890563738419 29.901774132872337
-12.563990379882052 7.063751339828068 28.59878125120573
-11.305721921401261 6.356325176585453 34.895648088983464
-12.34022524659459 6.937945667245171 33.64704177383681
-12.471988265837608 7.012025730630764 36.82035223476233
-11.875539723650677 6.676689260160545 35.463462022960584
-10.15380546379659 5.70869244408957 33.75073216514264
-10.23178612326814 5.752534883566828 36.88373170163069
-11.401207257598939 6.410009129780792 38.0433715505624
-10.294852842443351 5.787992378248279 40.00258508544257
-13.06795057133356 7.3470888281538915 38.17690609546123
-13.126227608847103 7.3798534586073385 39.75859040020652
-12.603907950544606 7.086193874781118 40.764568384650545
-11.496583068549281 6.46363150547653 41.95770870902026
-12.68938584477218 7.134251424303166 43.904122506574375
-13.778063073434906 7.746329673337835 42.69511826744459
-12.648576217187603 7.111307355355929 42.335983766334955
-12.137086824491933 6.82373678472359 44.884784465589874
-11.585233338256769 6.513472634169616 46.62982768657369
-11.5720508024078 6.50606112298169 45.85282896024834
-11.59786002508589 6.520571634830234 47.40619912518075
-13.401250686412595 7.534477473263352 49.958136796273756
-12.807439321413087 7.200623681729345 49.36960947663353
-11.65364830466249 6.551937030909883 51.27945151572883
-12.19692124863006 6.857377012142924 48.000351245127995
-11.663510473905003 6.557481759065037 52.05250945109583
-8.5872628003425 4.827947752053637 49.735620953646254
-11.672991540224622 6.562812222786615 52.825076680945116
-12.319162262186397 6.9261035947956096 56.520491149899826
-12.28060033138603 6.904423230347573 53.42942166751267
-14.085068978871229 7.918935136275265 55.22031706774678
-12.885115998145528 7.244295215434175 54.0299177620415
-11.722866362372267 6.590852943219929 57.45102001630828
-12.896415089653226 7.25064781284655 54.80474994182688
-11.768879905464578 6.616722767761421 62.83028568467446
-12.374585669596938 6.957263851729658 61.91355948065223
-10.503417716162422 5.905252131052069 58.51353591126026
-11.774596067676303 6.6199365197033515 63.597413402118086
-11.756853099923248 6.609961033536245 61.29508118420207
-10.518047624939161 5.913477387089253 60.81068497691491
-11.12508147424868 6.254765149713387 59.13825447806966
-10.513343376041554 5.910832555037601 60.04526676251743
-8.656955444532366 4.867130487306331 67.26485715820029
-9.286280849359521 5.220951052041386 65.63631932970797
-9.283658902816825 5.219476936108156 64.87498704640046
-8.658878354172254 4.868211589339558 68.02455578430394
-8.018142443644203 4.507975787685675 66.60526373635285
-7.382119529124825 4.150389735901402 68.9713077113015
-6.740771782960761 3.7898099468149473 70.56725465116624
2.374448783374851 7.868960414004781 4.171885008475175
2.466802460427929 8.17502194454053 4.937450419058783
2.5428642399507293 8.42709187179033 5.77275392221079
2.760689591895177 9.148968495796215 7.207014029025894
2.5401038695565954 8.417943961120908 6.87488450540109
3.2678211081476256 10.829610274227345 9.792710365826151
2.7223820200431685 9.022016603394622 8.396018894082177
3.3524654942168612 11.110123093838414 10.565880012596033
3.037538268672255 10.066449341658922 9.480751155765427
2.8034489569639245 9.290673700561978 9.175233767666764
3.601091348044257 11.934073062927748 14.802326483973308
3.4425208923748376 11.408568092161497 14.260362404101246
3.38652792900858 11.22300653561124 13.4520155069383
3.070421127246283 10.175423649393018 12.367363642049769
3.5432226771571256 11.74229538230973 15.883648850396549
2.8989140219950458 9.607046419531548 13.720122793532969
3.910622135346594 12.959862934350427 17.7790845815672
3.5884873167400384 11.892303106007976 16.69733723255127
3.749715991018669 12.426617454830351 17.238170033261415
3.437546582823948 11.3920831524917 19.686156307371252
3.8035498315885845 12.605023644656193 21.582297597074916
4.158874598203953 13.782575479923727 19.948153839107746
3.7412734729853963 12.398638817993248 19.95537052234144
4.198167137501887 13.912791569849958 24.290912289080143
3.68695986994189 12.21864268782452 22.662570831946994
4.395194380640497 14.565742935907474 25.645080673515785
4.079080734781086 13.51813736824435 25.36969834965812
3.710578508537527 12.29691522562068 23.471961235625468
3.7327113309723883 12.370263745415906 24.280142595451633
4.411515719190829 14.61983210719446 32.3616625370292
3.520870110273137 11.66821862597241 31.167673572678325
3.854448984905153 12.773704235014165 29.901774132872337
4.144440486093719 13.734740606583019 27.793222408058085
3.968400107980589 13.151340039538667 27.24575823940244
4.163836191480248 13.799018277660585 28.59878125120573
3.7182756979989366 12.3224238319107 32.524024110138086
3.3498159639551184 11.10134250910172 32.17819575654485
3.9356765326624066 13.042893599006273 35.463462022960584
4.101449756679211 13.59226865675594 34.441969397349396
4.1333457405511895 13.697972446288766 36.82035223476233
3.9449934374435007 13.07376996720457 36.25359018532202
3.556655141027566 11.786810777713969 34.324855526541974
4.506471487078759 14.934517007464043 37.94664229583205
3.411820572544194 11.306826751966634 40.00258508544257
3.5916651464518505 11.902834483386922 38.24818318775387
4.169134786621616 13.816577904850355 39.97757462765288
4.367766720689404 14.474847241750966 41.33657873593645
3.420794543874156 11.336566633343026 41.55735728642652
4.39136190555118 14.553042053506198 43.697077169075285
4.3838426147946095 14.528123006307064 42.91108010228054
4.557323322446354 15.103040785398873 41.90596392915256
3.8305334274785543 12.694447703567196 45.07518600508549
3.2465118183875763 10.758990954599799 47.140390188326265
3.4431276456972815 11.410578882164131 46.20573518877861
3.843650612268934 12.737918259167884 47.40619912518075
4.4413129055347245 14.718580448885609 49.958136796273756
3.855196297871254 12.776180841874794 49.7318011739594
3.862139424384981 12.799190471759626 51.27945151572883
3.4522238836536614 11.440723957053212 48.52211605111584
4.0627630078128085 13.464060165796791 51.88098475289526
3.0507322728530375 10.110174477921168 49.596740371716336
3.668825576983719 12.15854535726808 52.987306379139035
4.481533091789664 14.851870775339474 56.953792591822
4.281091961440556 14.187605733659481 56.35293577180121
4.069917802134572 13.487771266108794 53.42942166751267
4.469594773892348 14.812307003064609 54.62680598206985
4.07329454106966 13.49896183176541 54.202893433932296
3.887494327630769 12.883217017768526 58.22056758944071
4.277613515489995 14.176078109362482 55.57908595298669
4.103345511951325 13.598551219384937 62.68250209237022
3.8898245389887536 12.890939374662738 58.98973159098063
3.9022227623762205 12.932027280926734 63.597413402118086
3.6925185752752103 12.237064324259585 61.43898519563556
3.6888828451048625 12.225015457597653 59.90548743624559
3.690732398600249 12.231144906815796 60.67239430069944
3.2819491670552665 10.876430882466762 62.468883212515195
3.0792236759928437 10.204595433646281 67.15842877987524
2.8696417283523763 9.510037580463687 68.02455578430394
2.8683461382691555 9.50574397465967 66.50500134872914
2.656194737980834 8.80267091520554 65.08721496719498
2.656754143290263 8.804524793152332 65.84630960937412
2.2334066046222167 7.401544427153296 69.05404721202783
2.233961397594157 7.403383019741494 70.56725465116624
8.066366150509086 -0.5975365927611448 4.297827016012414
8.657860368438064 -0.6413530316661518 4.795119870786286
8.942576975529919 -0.6624441386317641 5.605160528167725
8.974374563004202 -0.6647996258143299 6.672206712021789
8.853689133675333 -0.6558595456231354 7.853843735793031
11.2809916330246 -0.8356681531173829 9.792710365826151
10.735286473177952 -0.7952436551733659 9.25124377415763
9.942155156513843 -0.7364904352316055 8.938330147336364
11.57319630991122 -0.8573139579020667 10.565880012596033
9.135459398685793 -0.67673239480382 8.632142091273343
10.787639459316834 -0.7991218358032305 13.176712947165171
10.939594106787641 -0.81037826287457 12.104079404563363
12.780768692751774 -0.9467679541243262 14.536951186630054
12.235915452173934 -0.9064065642673579 13.994453473913556
11.690784766919393 -0.8660246219901667 13.4520155069383
13.888806816124513 -1.0288486968696593 17.507337144494937
12.978442806134968 -0.9614111669396309 15.344383176213201
13.163658606230673 -0.9751314985052556 16.154273467995928
12.103970497076773 -0.8966324060615833 17.785818643152602
12.341291543445022 -0.9142125662962441 19.414415474800087
14.35703730175485 -1.0635340612319988 19.948153839107746
12.133354627801399 -0.8988091102957859 22.11855758824387
14.674656763973637 -1.0870625308932553 25.913394810341227
15.075502308746293 -1.116756184339897 24.832813660219077
14.492680836817131 -1.073582201157568 24.290912289080143
14.393386742014282 -1.066226738489158 23.478379478605053
13.319139156328019 -0.9866491157832579 23.20588766025831
10.552062869586365 -0.7816709006317654 23.688194301418193
11.962054131441441 -0.8861195902537577 20.498092535737474
12.219818503059956 -0.905214141812445 32.748490838579556
13.35311913620531 -0.9891662692349007 30.69980554762339
14.307208656747418 -1.0598428775931594 27.793222408058085
13.699491781543552 -1.0148247040814289 27.24575823940244
15.786848675900481 -1.1694509760926253 32.10924219331673
12.188125341535095 -0.9028663902477333 31.958655809078223
14.374165440163898 -1.0648028716572033 28.59878125120573
10.877353317795919 -0.8057676180946363 30.81851532818652
15.474509430997564 -1.1463136519614736 36.35616884791261
13.586525261299633 -1.0064564217169625 35.463462022960584
14.75287445403263 -1.09285670526365 34.20524651013435
13.516949469658503 -1.0013024179561392 33.8800598374345
14.837934188307722 -1.0991577214649413 35.79702638814753
13.732304057327744 -1.0172553568818337 39.40430367050773
14.95073442407366 -1.1075136858836876 38.17690609546123
15.632058623630115 -1.1579845091977252 39.533175354601525
13.678312819681848 -1.013255818604012 37.83084308531796
15.078163155335899 -1.1169532933199937 41.33657873593645
15.667074631281741 -1.1605784090423201 40.32501284156525
16.348798777082276 -1.2110788593918178 41.68151140723587
15.159617149969112 -1.1229872051846124 43.697077169075285
15.763157410538037 -1.1676959853423006 42.69511826744459
15.82054150318921 -1.1719468579857781 44.270893200389445
12.59187986835717 -0.9327755339398933 47.582324447269805
13.239310735396524 -0.9807356224259178 45.85282896024834
15.332055234621489 -1.135760994973331 49.958136796273756
11.927175577230335 -0.8835358726224395 49.29322563018499
14.012155331561308 -1.0379860519389672 51.10598191918583
12.625951081577275 -0.9352994457334952 49.90173483113033
11.917576714871169 -0.8828248124744796 48.52211605111584
11.89710161226462 -0.8813080671619477 46.97839231641087
13.343947591160829 -0.9884868637040857 52.05250945109583
13.35479465580405 -0.9892903876115593 52.825076680945116
14.790530069013146 -1.095646140736073 57.12632369444559
12.674220178813991 -0.9388751019038591 53.75756121425159
13.403209175590213 -0.9928768163272167 56.68108162793456
14.072827567943408 -1.0424805021940764 54.975886581657
14.741557695683712 -1.092018387600065 54.0299177620415
14.083641347513977 -1.0432815604251189 55.748416013707455
13.464498275758503 -0.9974169623365376 62.83028568467446
12.721089543784412 -0.9423470693457954 58.37068979932659
13.471038002296792 -0.9979014092163799 63.597413402118086
13.457735209690355 -0.9969159710128641 62.062843194212626
13.436001513839148 -0.9953059922039778 59.75853355246602
12.022492365617044 -0.8905967062001385 59.279552030070136
12.038647247520808 -0.8917934201738309 61.57581604802633
12.740942643565704 -0.9438177382167232 60.67239430069944
9.904218803533023 -0.7336802033776358 67.26485715820029
10.624215175001796 -0.7870157662048558 65.63631932970797
10.621215467724056 -0.7867935552572523 64.87498704640046
9.906418759156557 -0.7338431706869525 68.02455578430394
9.17336789689772 -0.6795405632449236 66.60526373635285
8.445709062354535 -0.6256373839728001 68.9713077113015
7.711958213356747 -0.5712829232323756 70.56725465116624
1.1701260324657794 -8.003381655395003 4.297827016012414
1.2559295739288705 -8.590257317212837 4.795119870786286
1.2972312341333834 -8.872750775564148 5.605160528167725
1.301843866907426 -8.90430007837647 6.672206712021789
1.2399879491508619 -8.481220423950454 9.130221018647072
1.2843369548776384 -8.78455699541424 7.853843735793031
1.5572858873323612 -10.651462284466225 9.25124377415763
1.5986195703539716 -10.9341747712126 11.050419107804954
1.520016853821786 -10.396551026330823 10.507079731257528
1.6167693549652693 -11.058314948575656 12.909647820131527
1.5869232328554244 -10.854174625609549 12.104079404563363
1.3186895435761463 -9.019520469926126 9.673337320445002
1.8540083456747902 -12.680972793549746 14.536951186630054
1.7239326611037962 -11.79128628216202 14.260362404101246
1.6958927155647903 -11.5994997741119 13.4520155069383
1.9583466404785443 -13.394621726586353 17.7790845815672
1.7743617220289343 -12.136208974170286 15.883648850396549
1.8546117771045076 -12.68510011992391 16.42478161470178
1.8777686668797169 -12.843487696715416 17.238170033261415
1.790256757477269 -12.24492720758227 19.414415474800087
2.08266557485806 -14.24493344620051 19.948153839107746
2.001289098896254 -13.688337851518316 19.407539483469506
1.8337080188521377 -12.542123422812674 21.852028547893397
2.102342344862114 -14.379517837726286 24.290912289080143
1.6134761423406607 -11.035790163402245 23.440788863228534
2.0174266417239997 -13.798714777291487 23.748634590477266
1.9321056304727875 -13.21513950649033 23.20588766025831
2.128740200560059 -14.560072844770687 25.913394810341227
1.8894105148089086 -12.923115146721845 25.89272974227558
2.035246786165231 -13.920600294885604 32.05381327351042
1.9302164615339243 -13.202218043665185 29.901774132872337
1.768038108236135 -12.092956971205748 31.958655809078223
1.8510761960812845 -12.660917592984653 30.937278957133717
2.085150222872561 -14.2619278432036 28.59878125120573
1.9964580897887343 -13.655294906916279 28.050136514030353
1.987280476243123 -13.59252222956932 27.24575823940244
2.059505819882796 -14.086526272127244 35.23581502511702
2.0539085787618303 -14.048242484171547 34.441969397349396
2.158148217099874 -14.761216630624533 36.591335458558895
1.6851501064297094 -11.526022901965394 33.75073216514264
1.9755589718316435 -13.512349948312764 36.25359018532202
1.8718149502847463 -12.802765701942599 34.10619780442383
1.984208206257782 -13.571508639102246 37.83084308531796
1.9920403020882598 -13.625078297714875 39.40430367050773
1.8016135705584684 -12.322605087533617 39.03011559723709
2.0917750394194465 -14.30724000082646 40.764568384650545
2.087803633413192 -14.280076535443502 39.97757462765288
2.1872737860667755 -14.960428542764825 41.33657873593645
2.1091296509722164 -14.425941385022872 44.6870295426893
2.1059611574289523 -14.404269648478428 43.904122506574375
2.2866406626932405 -15.640074166809521 42.69511826744459
2.1913889036075465 -14.988574960605133 42.12425364742961
2.127917947012103 -14.554448827545873 50.147758389640124
1.8315501391243707 -12.527364042584747 49.90173483113033
1.8299712275286275 -12.516564665637093 49.12912531007874
1.524724669615416 -10.428751358187656 47.293788599189504
1.3190941613804232 -9.022287958745576 46.80895694008594
2.032636185673181 -13.90274441311908 51.10598191918583
1.7273386548902228 -11.814582463455615 47.750509499555854
2.0345351742109856 -13.915733039647835 51.88098475289526
1.526774231793761 -10.442769872334537 48.82950218134895
2.036361285326458 -13.928223202072038 52.65546076002513
2.2423240432227027 -15.336959109577434 56.17863080420318
2.1364981172512856 -14.61313513584698 53.25457395311072
2.1455490545303215 -14.675041377887009 57.12632369444559
2.240332380979064 -15.323336617108914 55.402976860485
2.1384450069536087 -14.6264513948621 54.0299177620415
2.2382668554543868 -15.309208917498543 54.62680598206985
1.7431726011863824 -11.922882861706004 58.51353591126026
2.0548579279548287 -14.054735805151507 62.68250209237022
1.954140434082385 -13.365852282803543 63.597413402118086
1.8491255602106218 -12.647575711075815 61.43898519563556
1.9501454013219681 -13.338527216083982 60.526979807770516
1.9490579587191894 -13.331089369273554 59.75853355246602
1.640963199413457 -11.223795046836582 59.41344524368467
1.6435221565978282 -11.24129770075428 62.468883212515195
1.5420020478731653 -10.546924485154161 67.15842877987524
1.437048388618566 -9.829066606738484 68.02455578430394
1.4363995878909326 -9.824628965238784 66.50500134872914
1.3301592078060818 -9.097970224691402 65.08721496719498
1.3304393446923546 -9.099886293862063 65.84630960937412
1.1184369569873738 -7.649840765789767 69.05404721202783
1.1187147841246317 -7.651741036830669 70.56725465116624
-7.557668674443594 -2.88183224027725 4.297827016012414
-7.978721263577324 -3.0423847834604327 4.937450419058783
-8.756878005885893 -3.339105542807434 6.297417146446699
-8.37862212249038 -3.194871911141384 5.605160528167725
-8.521887181275213 -3.2495006442991983 7.628356792883924
-10.334117520599413 -3.9405264147637324 10.023273757001903
-10.277809173848526 -3.9190553479502133 9.02997690470414
-9.034505033257647 -3.4449681510688577 8.169023720809413
-10.107327548939116 -3.854048602589686 13.176712947165171
-10.549888785383898 -4.022802658161913 11.846001900839878
-10.041793751904967 -3.829059757847203 11.302810237649357
-11.647509102022191 -4.441338816907247 14.802326483973308
-11.464269435649031 -4.371467273049088 13.994453473913556
-10.621251843064217 -4.050014271854815 13.718486677917706
-8.802197965019818 -3.3563866019522783 9.420404451888666
-12.159970029725661 -4.636746486514697 15.344383176213201
-12.648667449315457 -4.823092837510012 17.7790845815672
-12.333505376903892 -4.702917653824137 16.154273467995928
-12.12822639423124 -4.62464224694929 17.238170033261415
-10.655896075335468 -4.063224544731232 19.955207387289803
-12.744570169272233 -4.8596617269661335 21.310288994149793
-13.451624814532225 -5.1292703801263695 19.948153839107746
-12.52176635853592 -4.774703887095784 19.68165060194996
-13.578714122989451 -5.177731100261542 24.290912289080143
-11.440484410551957 -4.362397749745911 22.926928853839485
-13.26815346003183 -5.059310490728929 26.1786597855949
-13.1935364572324 -5.030858107645849 25.36969834965812
-13.030256322915639 -4.96859737943187 23.748634590477266
-13.33852286711629 -5.086143213199409 26.986512504816194
-11.508063757506545 -4.388166587891617 23.733988058198033
-13.686516103046214 -5.218837324293807 31.80935267038694
-12.46697883944132 -4.75381273061713 29.901774132872337
-13.404938564189017 -5.111468337299106 27.793222408058085
-10.834774283483954 -4.131433010798089 32.17819575654485
-11.955823725800979 -4.558902984010679 30.937278957133717
-13.467672783678458 -5.135389668609202 28.59878125120573
-13.939155888029537 -5.315171988977324 36.591335458558895
-13.863350008318598 -5.286266272470819 35.00167108163429
-13.90219441022417 -5.3010781218105905 35.79702638814753
-12.697966906609055 -4.84189132836438 34.672293735083485
-12.089772231040369 -4.609979200442493 34.10619780442383
-10.884131980433967 -4.150253709151454 33.75073216514264
-12.221254875370574 -4.66011515370927 38.0433715505624
-12.26514832300343 -4.67685226643201 39.61163422342069
-13.484810764688168 -5.1419245920537895 39.97757462765288
-13.429727075437953 -5.120920502243465 38.400861882937164
-12.912224002049175 -4.923590200324118 40.9741957876028
-15.34994130289758 -5.853121860533313 42.47295036613971
-13.62255231592674 -5.194447143687655 44.6870295426893
-13.6020874909996 -5.186643653642359 43.904122506574375
-13.558342574447217 -5.169963177651769 42.335983766334955
-13.534949759292752 -5.1610432088350695 41.550697737328306
-14.959552553250653 -5.704261817385566 48.97957904425642
-9.183370126304668 -3.501732246330862 46.67174621514985
-14.365154197001662 -5.47761039610819 49.958136796273756
-12.457462279878582 -4.750183949130961 48.9571684631834
-11.156621492053812 -4.254157319318816 47.750509499555854
-13.758578505783161 -5.246315606878676 50.92531468062031
-9.189118775896633 -3.5039242772924992 47.43829248323273
-13.140757770157284 -5.010732943582108 51.88098475289526
-10.516686262050158 -4.010142126677477 48.68004588957469
-11.21479041232252 -4.276337845752759 53.14191058602452
-13.857779785255827 -5.284142277744494 57.12632369444559
-13.846929380048618 -5.280004884469774 56.35293577180121
-15.098157066939633 -5.757113427240805 55.22031706774678
-13.81189580665641 -5.266646151023945 54.0299177620415
-13.163899513571016 -5.019557175648729 53.42942166751267
-13.824007600965183 -5.271264527514126 54.80474994182688
-13.272019390774862 -5.060784617782371 62.68250209237022
-11.26430566688653 -4.29521862276679 59.279552030070136
-11.258890578113828 -4.293153782657842 58.51353591126026
-12.621500192595674 -4.812733627591258 63.597413402118086
-12.6024810373206 -4.805481389207233 61.29508118420207
-12.595696874740115 -4.802894504376751 60.526979807770516
-11.948806277422138 -4.55622714442922 62.20526495440886
-11.269530154822535 -4.297210784426884 60.04526676251743
-9.959560124118267 -3.7977030617549232 67.15842877987524
-9.281680168618765 -3.539219077480501 68.02455578430394
-9.277489661956112 -3.537621185627373 66.50500134872914
-8.591298969457574 -3.2759682148763045 65.08721496719498
-8.593108331621307 -3.2766581469760556 65.84630960937412
-7.2238166826791765 -2.754530359923477 69.05404721202783
-7.225611126520187 -2.755214603482854 70.56725465116624
-4.455726790810698 6.750541579711896 4.297827016012414
-4.7824583802599845 7.245548406551355 4.795119870786286
-4.939731108814198 7.483820666791707 5.605160528167725
-5.16273703114662 7.821680419398558 6.297417146446699
-5.264379668625504 7.9756716497378735 7.207014029025894
-5.756195598504922 8.72078553128527 8.490407899156008
-5.046276158257294 7.645239178326437 8.632142091273343
-6.244654743268013 9.460813796374167 10.804648550776566
-5.945102352690821 9.006984160305857 10.261487639374858
-6.156501376437125 9.327259160706022 12.909647820131527
-6.04285022929838 9.155074726973616 12.104079404563363
-6.866948074554558 10.40360432300404 14.802326483973308
-6.564568884470492 9.945492012412684 14.260362404101246
-6.457795483072233 9.78372754174704 13.4520155069383
-7.4571946521748425 11.29784318718346 17.7790845815672
-6.967869021027214 10.55650217276282 15.612652167780453
-7.062182322688617 10.69938926936359 16.42478161470178
-5.141500386407354 7.789506352168574 10.475881645817442
-7.150361519886563 10.832983038707344 17.238170033261415
-6.555083336315411 9.93112116109404 19.686156307371252
-7.930589133752658 12.015048097073315 19.948153839107746
-7.62071538167426 11.545581330802854 19.407539483469506
-6.982582832471789 10.578793978480686 21.852028547893397
-7.030691402373786 10.651679708847654 22.662570831946994
-7.682165584404917 11.638679980717955 23.748634590477266
-7.229623741566341 10.953067359014678 26.697102873344473
-7.490937967838004 11.348965185033798 25.633332860736743
-7.449111280190988 11.28559666910838 24.825323558805103
-7.07572996128621 10.719914292991287 23.471961235625468
-7.376041400292987 11.174893907104817 30.69980554762339
-7.350077650692776 11.135558153484796 29.901774132872337
-8.236848539015368 12.479039034234793 28.339674960574687
-7.445736187410537 11.280483316064199 33.08671987202425
-7.423775992885022 11.247213052153768 32.292249081281966
-7.602319366108599 11.517710890399476 28.050136514030353
-6.3877891618291205 9.677666150512522 32.17819575654485
-6.627693658504759 10.04112768125734 27.991453331712126
-7.504971070148906 11.370225698770291 35.463462022960584
-7.539619618665021 11.422719147856323 37.042708767775295
-7.486259820561797 11.341877670653611 34.672293735083485
-7.8626510270446595 11.912120104467242 36.02860022827418
-6.430243745680121 9.741985945461934 34.53543387145896
-7.555672994077925 11.447040427707467 37.83084308531796
-8.295366842855682 12.567695781336736 39.75859040020652
-8.258537571027128 12.511898479908401 38.17690609546123
-7.231085713094814 10.955282283774352 39.61163422342069
-7.254558214644278 10.990843732024791 41.176485694689426
-8.690393991585843 13.16617215069528 41.90596392915256
-8.031361776753702 12.167721263228602 44.6870295426893
-7.659739260870148 11.604703519276525 44.10417888360619
-8.00668861320206 12.130340780923923 43.120452035549086
-7.2654822722029655 11.007393962375803 41.95770870902026
-6.571761484372863 9.956388987695666 46.97839231641087
-6.185747944985292 9.37156847012227 46.36983574109834
-8.469172858311275 12.83101639977249 49.958136796273756
-6.208936566920679 9.406699833399275 50.21789335960013
-5.817464230233171 8.813609096425436 49.596740371716336
-8.111557874850021 12.289220430512906 50.92531468062031
-5.809991771060718 8.802288127094377 48.06185534690604
-6.200256024298071 9.393548586327926 48.68004588957469
-7.75426687643082 11.747915306989666 52.65546076002513
-6.990996506038799 10.591540912015605 52.21660841372039
-7.790877469938446 11.803381305093692 57.29213568878917
-8.163646339482948 12.368135804555386 56.35293577180121
-8.901324711748302 13.485737659027576 55.22031706774678
-8.523103764998401 12.912723121282848 54.62680598206985
-7.767395881552108 11.76780609004986 54.202893433932296
-7.382729844487618 11.18502707342295 53.59716428313877
-7.030704840387587 10.651700067786873 59.13825447806966
-7.026918742706061 10.645964031664393 58.37068979932659
-7.05083697147061 10.682200768198854 63.7369526239666
-7.437565388515774 11.268104343953002 62.83028568467446
-7.429964822162209 11.256589288922045 61.29508118420207
-7.4259651264537565 11.250529646252348 60.526979807770516
-7.034358338120907 10.657235211550853 59.90548743624559
-6.258373458295044 9.481598005226735 62.468883212515195
-5.470926095038221 8.288594839399208 67.26485715820029
-5.467032447693483 8.282695862749295 64.98480295047077
-5.069180893347482 7.679940445674667 68.12275388419866
-5.067216183533933 7.676963859382218 66.60526373635285
-4.662204758302779 7.063361052334025 65.94018521025234
-4.259957728139773 6.453946375466698 70.56725465116624
-4.259437154740782 6.453157693274057 69.810695655403
5.711581689356345 5.910700434623118 4.171885008475175
5.933732436297859 6.1405958625298895 4.937450419058783
6.116694086270707 6.329935972298282 5.77275392221079
6.253292948930578 6.4712969824011966 6.672206712021789
7.261051283308905 7.514188067388254 8.490407899156008
5.987504543033215 6.196242587366822 8.089085118343071
7.877209445280888 8.151826906127301 10.804648550776566
7.499344372283073 7.760788596133563 10.261487639374858
6.168586404013704 6.383637374417543 8.877065075341243
7.306600200240555 7.561324923297402 9.480751155765427
7.385697771954933 7.6431800164988255 12.367363642049769
8.40616859900456 8.69922678060318 15.071131180815216
7.749873799979973 8.020052050236558 14.80169224287829
7.362026914941986 7.618683939502316 14.260859886978434
9.677641279912969 10.015025894824317 17.507337144494937
8.789495323994723 9.095917148216103 15.612652167780453
7.516765574354338 7.778817140984137 13.176712947165171
8.63187220305026 8.932798926304077 16.69733723255127
8.733414175719442 9.037880883392544 17.51171800563205
9.149191056367455 9.468152692991648 21.582297597074916
10.003901608553228 10.352660401547372 19.948153839107746
8.26879411181099 8.55706310592891 19.686156307371252
7.3526171518483885 7.608946130637448 23.688194301418193
9.75307409775728 10.093088472489638 24.559669531851917
10.636486963224204 11.007299122334244 26.456519611736308
10.225217036117796 10.581691388941357 25.913394810341227
9.075617860348231 9.392014567803344 25.89272974227558
9.34043480381226 9.666063633011547 24.016162479636456
8.33509101160453 8.62567126663404 20.498092535737474
8.558485619572068 8.856853919394975 23.733988058198033
9.271625650081225 9.594855635475245 29.901774132872337
10.390227126780198 10.7524541071588 28.339674960574687
9.807609307764642 10.149524904116534 32.850996214061695
8.944069689506845 9.25588032813817 32.524024110138086
8.891482319140081 9.201459642277761 30.937278957133717
9.200156084669809 9.520894478248552 28.301980380242593
7.614168657540874 7.879615917476673 32.38917227145796
10.366475866877057 10.727874824244234 36.591335458558895
9.467013218636081 9.797054859646243 35.463462022960584
9.418533204320731 9.74688472162331 33.8800598374345
10.338987813027076 10.699428474235654 35.79702638814753
9.443410243285125 9.772629030821056 34.672293735083485
9.53097026518027 9.863241594488962 37.83084308531796
9.568591051264566 9.902173926853862 39.40430367050773
10.417586373183086 10.780767159199335 38.17690609546123
10.028581822633223 10.378201024096999 39.97757462765288
9.602752102076916 9.937525909696028 40.9741957876028
10.065869925423165 10.416789075070254 41.550697737328306
9.214098336439038 9.535322788666589 45.07518600508549
10.983678070954408 11.366594102774148 42.69511826744459
10.526144592013681 10.893109964769225 42.12425364742961
9.20262404428964 9.52344847656127 44.29687606978045
6.83389860859539 7.072143877635253 47.43829248323273
7.8029025048813185 8.07492945655852 46.36983574109834
10.670332658421813 11.042324755546744 49.17792700131146
8.310787834198015 8.600520825114996 49.29322563018499
10.242674724418428 10.599757692014348 51.702291776664495
9.754099635981804 10.094149763312236 50.330434952946156
7.3289115151389055 7.584414061444973 48.06185534690604
7.333726248574583 7.5893966474533086 48.82950218134895
9.781483010905992 10.122487785049273 52.65546076002513
10.780035571426122 11.155852161936176 56.953792591822
9.312814183305925 9.637480094771066 53.59716428313877
8.329258825580085 8.619635757322543 51.603741726993576
10.29788750493101 10.656895315797376 56.35293577180121
11.217156944105739 11.608212581169122 54.442290348523024
10.271833223307496 10.629932722580357 54.0299177620415
10.289520330057524 10.648236442152369 55.57908595298669
8.86398255258831 9.173001171235931 58.37068979932659
9.386542356032367 9.713778599507544 63.597413402118086
9.381985511924432 9.709062893436235 62.83028568467446
8.882112610647372 9.191763284408388 61.43898519563556
9.36212913094472 9.68851427379458 59.75853355246602
7.882222949456366 8.157015192476107 59.41344524368467
8.877816079148316 9.18731696603634 60.67239430069944
8.39195836821024 8.684521148800938 62.34066408788086
6.393209734460878 6.616091585722052 67.36407704070164
6.390648820974265 6.613441392959063 65.84630960937412
6.389303207986259 6.612048868837792 65.08721496719498
5.884921846928261 6.090083624853463 68.9713077113015
5.884002056576467 6.089131768515271 68.21370412601289
5.373648445300402 5.560986068069051 70.56725465116624
5.372991777179571 5.560306507002029 69.810695655403
7.405119039078838 -4.531455824309658 4.795119870786286
6.89921054572194 -4.221872416306129 4.297827016012414
7.781367808004073 -4.761695833462527 5.44715037477481
8.319483989262283 -5.0909882716866015 7.010971636385647
7.500011795599694 -4.589524078439267 6.87488450540109
9.205347359194361 -5.6330795879823965 10.261487639374858
8.912845701928179 -5.454087416290859 8.490407899156008
7.813612306633244 -4.781427389477226 8.632142091273343
9.181953839576325 -5.618764260954589 9.25124377415763
9.425662443507896 -5.767898227186882 11.050419107804954
10.318462264486117 -6.314234204686258 15.071131180815216
8.196038223396664 -5.015447415183678 13.994145014578653
9.065847640248455 -5.547714746367963 12.367363642049769
11.879178389051116 -7.269291933729035 17.507337144494937
9.160369913143962 -5.605556288384904 15.075291550331531
10.935024754432792 -6.691530730424119 16.42478161470178
10.461860316662406 -6.401984575112409 15.883648850396549
11.071560694759304 -6.775081930446033 17.238170033261415
8.301459018110016 -5.079958150485321 14.80867505694621
11.230512635314112 -6.872350278599693 21.582297597074916
12.279658685136543 -7.514360076542214 19.948153839107746
11.799852727870313 -7.22074973913662 19.407539483469506
11.31381732918918 -6.9233273848771715 22.394570314137763
9.28828789172178 -5.683833850973888 20.220436790399944
12.977425881608324 -7.941348651577681 25.645080673515785
12.395675400730543 -7.585354832848131 24.290912289080143
11.021352058626038 -6.744357479503914 24.280142595451633
13.056148953486858 -7.9895221003350825 26.456519611736308
10.956001806094692 -6.704367334728319 23.471961235625468
11.140202497245754 -6.817086291757021 25.89272974227558
12.000071531327544 -7.343270749031883 32.05381327351042
10.395861237923508 -6.361597390494286 31.167673572678325
10.879019670802025 -6.657259227012722 30.14210459069852
12.23703995116144 -7.488280156789809 27.793222408058085
10.424575492843543 -6.3791686647724495 31.958655809078223
11.822422572111881 -7.234561029894066 28.85329377385475
13.19753498243588 -8.07604124215792 35.559396856273224
12.65551252595333 -7.74435841513344 35.00167108163429
12.075346394213275 -7.389334116014582 33.64704177383681
12.204281163839616 -7.468233889224978 36.82035223476233
10.477296795387913 -6.4114307056956426 33.537211544907876
11.063048340648798 -6.769872918084575 34.895648088983464
11.699141632354083 -7.159121036351256 37.83084308531796
11.19655336850803 -6.851569394923736 39.61163422342069
11.177014290044923 -6.839612737584936 38.827943530094906
12.309953325871444 -7.5328984451327905 39.97757462765288
11.232897995956577 -6.873809965651223 41.176485694689426
13.456134248823357 -8.234287334577187 41.90596392915256
12.435694212886341 -7.609843767930518 44.6870295426893
11.860276979967301 -7.257725488972575 44.10417888360619
12.943908205907958 -7.920837993211729 42.91108010228054
12.355723985479422 -7.560907140329792 41.550697737328306
11.372112067429194 -6.95900000941302 48.9571684631834
9.593261769270748 -5.870458218035176 47.91045085529386
9.577961005875656 -5.86109513649156 46.36983574109834
13.113597273986363 -8.02467677173881 49.958136796273756
11.383006047478663 -6.96566642342805 49.7318011739594
9.585780024307043 -5.865879872081131 47.140390188326265
12.559869188527346 -7.685830853841284 50.92531468062031
9.600425196004934 -5.874841773738378 48.68004588957469
11.995875777568568 -7.340703218016089 51.88098475289526
12.58513919814254 -7.701294471866442 52.47870746108029
12.59706213901896 -7.7085905436233215 53.25457395311072
12.640522536763845 -7.735185507384008 56.35293577180121
13.7689137779463 -8.425688257572384 54.442290348523024
12.608541246049267 -7.715615017657547 54.0299177620415
12.063330299308381 -7.381981039993131 57.29213568878917
12.63025193878861 -7.728900563040992 55.57908595298669
10.880422918566799 -6.658117924249468 58.37068979932659
11.521858258492445 -7.050635031899596 63.597413402118086
11.516264791811508 -7.04721219061431 62.83028568467446
11.510480301513379 -7.043672455180782 62.062843194212626
11.498303041886341 -7.036220756731389 60.526979807770516
11.49189134326175 -7.032297210205967 59.75853355246602
9.67532581655133 -5.920676128517582 59.41344524368467
10.296725997378637 -6.30093300943698 61.57581604802633
9.091838396068244 -5.563619414640851 67.15842877987524
7.849077809187639 -4.8031299924015105 68.12275388419866
8.469192984079339 -5.182600532466636 66.50500134872914
8.467184316936489 -5.181371357570794 65.74498338519653
6.589853309625495 -4.03256571618373 65.269369805275
6.596083346700027 -4.036378097542904 70.56725465116624
6.595277295150468 -4.035884845919308 69.810695655403
-2.621253447612111 -7.651950288465615 4.297827016012414
-2.8134659295474997 -8.213056028901377 4.795119870786286
-3.0371795393553653 -8.866119708288208 6.297417146446699
-2.9059876889130662 -8.483145097896836 5.605160528167725
-3.0287632990929407 -8.841551060734297 7.412756925053857
-3.760836064369822 -10.978614309059758 10.565880012596033
-3.665880975249662 -10.701421875704565 9.792710365826151
-3.207675356772581 -9.363830267508003 7.95130316984872
-3.3211979129482967 -9.695224760195254 9.718346544999209
-3.4444353053209675 -10.054978755359233 12.367363642049769
-4.513318893624398 -13.1752585166717 17.507337144494937
-4.395095628550363 -12.830141737479396 15.886516767945318
-4.099118180123891 -11.966125812605961 15.612652167780453
-3.794735171640435 -11.077572417782282 15.34261715638798
-3.2974977747179883 -9.626039432186133 14.534713265787493
-3.505560818429507 -10.233416055304259 13.176712947165171
-3.052898024015476 -8.912005032097222 9.420404451888666
-4.206476443827349 -12.279525532752523 17.238170033261415
-3.3392385958817465 -9.74788903388557 15.349374743576666
-3.8562810516430237 -11.257236850715579 19.686156307371252
-4.665475484564441 -13.619433295343423 19.948153839107746
-4.483180276825231 -13.087278013405053 19.407539483469506
-4.107774148226817 -11.991394272503445 21.852028547893397
-4.73997973403018 -13.836925737255372 25.10261240977812
-4.548498164288492 -13.277953672133046 24.559669531851917
-3.6144225351845036 -10.551204648271147 23.440788863228534
-5.1203735881396835 -14.947369622159131 26.187157963691867
-4.768689384706719 -13.920734809581523 25.913394810341227
-4.519330732929585 -13.19280824867012 23.748634590477266
-4.162571545823885 -12.151358568490176 23.471961235625468
-4.133323317174657 -12.065977281971143 30.14210459069852
-4.649283124203099 -13.572164635897012 27.793222408058085
-5.130108247816541 -14.975786993241773 32.10924219331673
-4.367323071913328 -12.749068225506036 32.292249081281966
-4.671041459505097 -13.635681462262019 28.59878125120573
-3.9606639440004945 -11.561950881330683 31.958655809078223
-3.9497543856958237 -11.530103751900104 31.167673572678325
-4.601055607500973 -13.431379104197665 34.441969397349396
-4.636836905373008 -13.5358316945502 36.82035223476233
-4.587850038374191 -13.392829471165774 33.64704177383681
-4.42554102908242 -12.91901780232385 36.25359018532202
-4.006864940037421 -11.696820603781298 35.89705572756818
-4.647616418802452 -13.567299197614847 37.61109353451508
-4.035877890127414 -11.78151506627694 39.03011559723709
-4.6858820174719416 -13.679003946747002 40.764568384650545
-4.462461619307518 -13.026796209360615 39.40430367050773
-4.676985487186375 -13.653033238898436 39.97757462765288
-4.899813176976562 -14.303510744887573 41.33657873593645
-5.312720047556848 -15.508866469006698 41.68151140723587
-4.724758885520766 -13.79249311047203 44.6870295426893
-4.506137581589154 -13.15429486557962 44.10417888360619
-4.917847308102488 -14.356155892573295 42.91108010228054
-5.181354799782759 -15.125385677969492 48.196616311633505
-4.0918683705878705 -11.944962203943469 47.582324447269805
-3.8660926166576344 -11.285878723485357 46.97839231641087
-3.413153860334546 -9.963662113618419 46.52527512777299
-4.982318170641741 -14.544358920271465 49.958136796273756
-4.324805519182878 -12.624951192802849 49.7318011739594
-4.553402335822981 -13.292269905773944 51.10598191918583
-4.750293083459315 -13.867032416642369 47.81143210496467
-4.336260960070367 -12.658391860008601 52.05250945109583
-4.806343675951836 -14.030655033059919 57.12632369444559
-4.802580390832767 -14.019669269482318 56.35293577180121
-5.231296025991763 -15.271173862108816 54.442290348523024
-4.565682682101408 -13.32811863277639 53.42942166751267
-3.661674321745331 -10.689141833297654 53.28865428273464
-4.121409057296488 -12.03119723260405 54.52739736160865
-4.576632494518438 -13.360083271815574 55.748416013707455
-3.9068397062877 -11.404827428935016 59.279552030070136
-4.133856460498359 -12.067533631363192 58.37068979932659
-4.377560371990512 -12.77895290199548 63.597413402118086
-4.3754352166956645 -12.772749159016616 62.83028568467446
-4.142311695737376 -12.092216112862708 61.43898519563556
-4.368610914320129 -12.75282768878312 60.526979807770516
-4.149676741883475 -12.113716119675688 64.50237328713439
-4.138233089956481 -12.080309866745958 59.90548743624559
-3.913720622851322 -11.424914167030442 62.34066408788086
-3.4533973965873495 -10.081140848503457 66.39746625752852
-2.7436530346951806 -8.009258566511592 67.4559825286586
-2.982141526419512 -8.70545300917724 68.12275388419866
-2.506084732259035 -7.315750335931077 70.56725465116624
-2.505778484842866 -7.314856339966424 69.810695655403
-8.038767290834553 0.8952839200923404 4.297827016012414
-8.628237726850543 0.9609337123604467 4.795119870786286
-8.74830070882962 0.9743052223538706 5.77275392221079
-9.06436506811552 1.0095055619514086 7.628356792883924
-8.738804114439626 0.9732475790678542 6.87488450540109
-9.104202664575002 1.0139423068197375 8.632142091273343
-10.72581344799624 1.1945423921960934 10.261487639374858
-10.982518426300649 1.2231318302241883 11.050419107804954
-9.908138334080142 1.1034772630707104 8.938330147336364
-10.902164573213772 1.2141827575637363 12.104079404563363
-10.185332201782389 1.1343485650407243 9.718346544999209
-10.750729834573557 1.1973173500276144 13.176712947165171
-13.84128662881678 1.5415151233818472 17.507337144494937
-12.741185203415487 1.4189959508520757 16.42478161470178
-12.571030541767493 1.400045690570765 15.612652167780453
-10.529417422226686 1.1726696102781498 14.260859886978434
-13.291624701737197 1.480298836481442 16.96601500804357
-11.232334886748733 1.250954088528463 15.615906607613013
-10.240658729631823 1.1405103245426587 15.349374743576666
-13.085479423156277 1.4573402725077245 21.582297597074916
-14.307915076152906 1.5934839054653895 19.948153839107746
-13.748858585608348 1.531221338544406 19.407539483469506
-11.635519019739343 1.2958570267581118 23.186675000308963
-11.334218595027977 1.2623009583210227 19.955207387289803
-13.949173170878382 1.5535305335570173 24.559669531851917
-14.11276448317306 1.5717498283898477 26.1786597855949
-14.033397584823504 1.562910673665096 25.36969834965812
-13.273568071938563 1.4782878552296015 23.20588766025831
-15.212659833469584 1.6942460501709586 26.456519611736308
-13.359002634834608 1.4878027705908357 24.016162479636456
-12.716895757411375 1.4162908158918655 30.937278957133717
-13.831327840925166 1.540406005237186 29.655228846074586
-14.86045076900861 1.6550202459506775 28.339674960574687
-13.433171136744841 1.4960629757610084 33.08671987202425
-12.17800871537843 1.3562745365267073 32.748490838579556
-13.715669547062289 1.5275250488698076 28.050136514030353
-11.524483655676859 1.2834909297670867 32.17819575654485
-14.745849466134096 1.642257007512097 35.00167108163429
-14.110354477390835 1.5714814241251023 34.441969397349396
-14.826480921748695 1.651236996987311 36.591335458558895
-14.787166586653878 1.6468585281542047 35.79702638814753
-13.470701582483514 1.5002427714147577 33.8800598374345
-13.631512832047889 1.5181524484455997 37.83084308531796
-13.045911034655546 1.4529335095443208 39.61163422342069
-12.377087458869621 1.3784460948554405 39.03011559723709
-13.734177618899588 1.5295863075812943 40.9741957876028
-12.415263770573613 1.3826978211165037 40.591502767119735
-15.678711519768628 1.7461505979181215 41.90596392915256
-14.48972331180111 1.6137320335710232 44.6870295426893
-15.709224181958575 1.749548817424863 42.69511826744459
-13.161901071766064 1.465851412421589 44.29687606978045
-13.756933540762459 1.5321206527356732 41.75787847875367
-12.523621452345889 1.3947657024967508 46.033290460699526
-11.856395991938935 1.3204562711913275 46.97839231641087
-13.275344986040551 1.4784857515693437 50.50588621641421
-13.26316048472879 1.4771287539471831 49.7318011739594
-10.482054668509653 1.1673947826484832 48.06185534690604
-13.964213110551524 1.555205543625274 51.10598191918583
-11.886367059624332 1.3237941728864453 49.29322563018499
-11.18614710078726 1.2458101179941847 48.68004588957469
-13.298291625363943 1.481041337079303 52.05250945109583
-13.989804549778597 1.5580556826084166 52.65546076002513
-14.055855287493062 1.5654118059102342 57.29213568878917
-14.013491149492896 1.560693678096861 54.202893433932296
-12.663138442657257 1.4103038209030219 56.834496430625904
-14.704002638626989 1.637596492980633 54.80474994182688
-14.71641653601821 1.638979038626992 55.57908595298669
-11.936183122760111 1.3293422275413698 53.9103813700533
-13.424947200000116 1.495147069371256 63.597413402118086
-12.715169268813325 1.4160985354806859 62.97125273133831
-13.411689922548778 1.4936705958154264 62.062843194212626
-13.397501319993006 1.492090399840448 60.526979807770516
-13.390030587966425 1.491258378460461 59.75853355246602
-11.975597926974492 1.3337318857003955 58.51353591126026
-12.703494886566405 1.4147983502253427 61.43898519563556
-11.273419210331001 1.2555296823901005 59.41344524368467
-10.59355597680476 1.179812772220054 67.15842877987524
-9.865726503253699 1.0987538236692633 65.74498338519653
-8.409782667945153 0.9366041983410757 65.1821066360131
-9.14198145985712 1.0181497613600754 66.60526373635285
-7.682662192703141 0.8556242114970366 68.29731133470291
-7.685571951119831 0.8559482736109861 70.56725465116624
-7.684632762383905 0.8558436754129309 69.810695655403
-0.8734988423681064 8.041163636324594 4.297827016012414
-0.9221631812042468 8.489152680905427 4.937450419058783
-0.9851874685208294 9.069335026655816 5.44715037477481
