ply
format ascii 1.0
element vertex 932
property float32 x
property float32 y
property float32 z
element face 0
property list uint8 int32 vertex_indices
end_header
-12.652898633563717 -4.824706240228026 116.52824100000001
-10.544082943652985 -4.0205888191326 120.59499799999999
-5.623511502494842 -2.14431426535812 104.484382
-12.652898633563707 -4.824706240228021 106.04852
-10.544082943652993 -4.0205888191326045 120.907825
-11.24702300498969 -4.288628530716243 107.61265699999998
-14.058778756237102 -5.360785663395299 119.187274
-11.949963066326397 -4.556668242299884 107.925484
-10.544082943652986 -4.020588819132601 104.79721
-11.247023004989696 -4.288628530716244 114.964103
-11.247023004989694 -4.2886285307162435 121.84630799999998
-11.247023004989677 -4.288628530716237 108.394726
-11.247023004989684 -4.28862853071624 112.617897
-11.247023004989693 -4.2886285307162435 113.869207
-11.949963066326397 -4.556668242299885 116.058999
-11.949963066326392 -4.5566682422998825 106.51776099999998
-12.652898633563714 -4.824706240228024 109.958863
-11.247023004989678 -4.288628530716237 120.43858399999999
-16.870534507484543 -6.432942796074367 105.735692
-10.54408294365298 -4.020588819132598 114.49486199999998
-12.65289863356372 -4.824706240228026 115.902586
-14.05877875623712 -5.360785663395306 109.489622
-11.9499630663264 -4.556668242299886 107.769071
-11.949963066326383 -4.556668242299879 114.182034
-13.35583869490041 -5.092745951811662 113.399966
-11.247023004989673 -4.2886285307162355 120.751412
-14.058778756237123 -5.360785663395307 105.11003699999999
-12.652898633563714 -4.824706240228024 112.148656
-9.9462540392232 15.068832674531496 105.735692
-6.630836026148799 10.045888449687663 114.338448
-7.459689204638556 11.301622498824335 106.674175
-7.045263940172519 10.67375748133028 117.46672299999999
-7.459689204638552 11.30162249882433 118.248792
-6.630836026148789 10.045888449687647 108.238312
-9.946254039223195 15.068832674531489 105.892106
-6.6308360261488 10.045888449687663 108.55113899999999
-7.045263940172517 10.673757481330279 107.925484
-6.630836026148796 10.04588844968766 114.182034
-7.459689204638566 11.301622498824349 113.087138
-7.459689204638563 11.301622498824347 111.053759
-7.045263940172508 10.673757481330265 112.617897
-7.04526394017252 10.673757481330282 121.68989399999998
-7.459689204638553 11.301622498824331 117.93596400000001
-7.045263940172509 10.673757481330266 121.064239
-7.045263940172518 10.67375748133028 110.897346
-6.216408112125079 9.418019418045043 114.025621
-6.216408112125077 9.41801941804504 119.03085999999999
-7.045263940172516 10.673757481330277 116.215413
-7.045263940172517 10.673757481330279 108.081898
-6.630836026148792 10.045888449687652 120.125757
-8.702972946709718 13.185229593752194 105.579278
-7.045263940172512 10.673757481330272 106.36134699999998
-6.63083602614879 10.045888449687649 118.405205
-6.630836026148799 10.045888449687663 111.52300099999998
-6.216408112125071 9.418019418045033 113.86920700000002
-7.459689204638553 11.301622498824331 111.992242
-7.459689204638551 11.301622498824328 109.802449
-7.04526394017252 10.673757481330282 109.646036
-7.459689204638563 11.301622498824347 119.34368800000001
-5.801980198101365 8.790150386402434 115.74617200000002
-6.630836026148802 10.045888449687666 118.09237800000001
-7.874117118662271 11.929491530466947 118.874447
-3.3154180130743964 5.022944224843827 104.484382
-6.630836026148795 10.045888449687656 108.707553
-7.045263940172514 10.673757481330274 116.841068
-6.63083602614879 10.045888449687649 114.651276
-7.04526394017251 10.673757481330268 112.77431099999998
-5.8019801981013615 8.790150386402427 117.31030900000002
-6.630836026148801 10.045888449687665 114.80768899999998
-6.63083602614879 10.045888449687649 109.958863
-6.630836026148792 10.045888449687652 116.684654
-5.387554933635309 8.162285368908352 121.53348000000001
-8.288545032685999 12.55736056210958 105.422865
-6.630836026148801 10.045888449687665 119.969343
-6.630836026148796 10.04588844968766 116.99748199999999
-7.459689204638561 11.301622498824344 110.115277
-7.874117118662276 11.929491530466954 112.930724
-6.630836026148796 10.04588844968766 107.45624299999999
-7.459689204638552 11.30162249882433 119.500102
-6.216408112125077 9.41801941804504 104.79721
-7.459689204638562 11.301622498824345 112.305069
-7.0452639401725206 10.673757481330284 113.243552
-7.8741171186622845 11.929491530466967 109.333208
-6.6308360261487875 10.045888449687645 111.67941399999998
-6.630836026148796 10.04588844968766 107.29983
-7.045263940172513 10.673757481330272 111.835828
-7.045263940172517 10.673757481330279 117.153895
-7.045263940172506 10.673757481330263 117.62313699999999
-7.459689204638559 11.301622498824338 111.36658700000001
-7.045263940172514 10.673757481330274 120.75141199999999
-6.630836026148801 10.045888449687665 110.27169099999999
-7.874117118662281 11.929491530466962 110.740932
-7.04526394017252 10.673757481330282 107.612657
-6.216408112125084 9.41801941804505 118.561619
-7.045263940172515 10.673757481330275 121.220653
-7.045263940172517 10.673757481330279 120.907825
-6.630836026148794 10.045888449687654 106.830588
-7.45968920463856 11.301622498824342 115.276931
-6.630836026148792 10.045888449687652 116.058999
-7.045263940172513 10.673757481330272 115.589758
-7.045263940172513 10.673757481330272 108.86396699999999
-7.45968920463856 11.301622498824342 109.176794
-7.045263940172515 10.673757481330275 113.55637899999999
-6.630836026148789 10.045888449687647 106.20493300000001
-6.6308360261487955 10.045888449687657 117.77955
-6.630836026148802 10.045888449687666 104.953623
-7.459689204638563 11.301622498824347 111.210173
-7.04526394017252 10.673757481330282 110.428104
-6.6308360261488 10.045888449687663 115.433344
-7.045263940172515 10.673757481330275 119.18727400000002
-6.216408112125073 9.418019418045034 116.528241
-7.459689204638557 11.301622498824337 110.584518
-8.288545032685999 12.55736056210958 109.489622
-7.045263940172516 10.673757481330277 120.28217
-7.459689204638554 11.301622498824333 109.020381
-5.801980198101358 8.790150386402422 104.640796
-7.045263940172511 10.67375748133027 106.04852
-6.216408112125073 9.418019418045034 114.49486199999998
-6.630836026148802 10.045888449687666 119.812929
-6.216408112125074 9.418019418045034 116.37182700000001
-6.6308360261488 10.045888449687663 114.964103
-8.288545032685994 12.557360562109569 105.266451
-7.459689204638558 11.301622498824337 118.71803300000002
-7.0452639401725206 10.673757481330284 115.120517
-7.459689204638554 11.301622498824333 108.39472600000002
-7.874117118662282 11.929491530466963 119.656515
-6.630836026148794 10.045888449687654 121.377067
-7.045263940172509 10.673757481330266 105.11003699999999
-6.630836026148799 10.045888449687663 106.51776099999998
-7.045263940172511 10.67375748133027 112.461483
-7.459689204638566 11.301622498824349 115.902586
-7.459689204638554 11.301622498824333 120.59499800000002
-7.045263940172513 10.673757481330272 113.71279299999999
-6.216408112125077 9.41801941804504 106.987002
-6.630836026148789 10.045888449687647 120.43858399999999
-7.874117118662277 11.929491530466956 107.769071
-8.28854503268599 12.557360562109565 113.39996600000002
-6.630836026148799 10.045888449687663 121.84630799999998
-7.874117118662282 11.929491530466963 112.14865599999999
-7.4596892046385594 11.30162249882434 107.143416
12.54652650691301 12.983926994446675 105.735692
7.841578231261187 8.114953506840223 114.33844800000001
8.88712377795615 9.196949152422002 117.46672299999999
8.887123777956134 9.196949152421984 118.718033
8.88712377795614 9.196949152421992 118.248792
7.841578231261191 8.114953506840227 108.238312
8.364351004608661 8.655951329631105 122.159135
8.364351004608674 8.655951329631117 108.55113899999999
8.887123777956148 9.196949152422 107.143416
8.887123777956138 9.196949152421988 114.182034
8.887123777956143 9.196949152421993 113.087138
7.8415782312611935 8.11495350684023 121.68989399999998
9.409893209065881 9.73794351645712 110.89734600000001
7.841578231261194 8.11495350684023 114.025621
8.887123777956146 9.196949152421997 111.053759
9.409893209065876 9.737943516457115 119.03086
8.364351004608661 8.655951329631105 106.674175
8.887123777956141 9.196949152421993 119.812929
8.887123777956146 9.196949152421997 116.215413
8.887123777956145 9.196949152421997 120.125757
10.978211529108316 11.360936984829777 105.579278
8.364351004608665 8.65595132963111 106.361347
8.364351004608661 8.655951329631105 118.405205
8.88712377795614 9.19694915242199 111.36658699999998
8.364351004608674 8.655951329631117 115.276931
8.887123777956148 9.196949152422 111.99224199999999
5.750490480109015 5.950965674432441 109.802449
8.887123777956152 9.196949152422002 109.646036
7.841578231261196 8.114953506840232 119.343688
9.409893209065885 9.737943516457126 115.74617199999999
9.409893209065874 9.737943516457113 120.28217000000001
6.7960360268039794 7.03296132001422 117.31030900000002
8.887123777956143 9.196949152421995 118.874447
8.364351004608672 8.655951329631115 121.06423900000001
10.455438755760833 10.819939162038887 105.266451
7.841578231261194 8.11495350684023 108.707553
8.364351004608661 8.655951329631105 116.84106799999999
7.318805457913722 7.573955684049351 114.651276
8.88712377795614 9.19694915242199 112.77431099999998
8.88712377795615 9.196949152422002 110.584518
6.796036026803984 7.032961320014225 114.80768899999998
8.364351004608663 8.655951329631106 116.684654
7.841578231261191 8.114953506840227 106.987002
7.841578231261198 8.114953506840235 115.12051700000002
8.364351004608658 8.655951329631101 122.002722
7.841578231261194 8.11495350684023 121.53348
10.455438755760841 10.819939162038896 105.422865
8.887123777956136 9.196949152421988 119.969343
7.841578231261191 8.114953506840227 104.640796
8.887123777956141 9.196949152421993 110.11527699999999
7.841578231261197 8.114953506840234 107.456243
9.409893209065876 9.737943516457115 119.500102
8.36435100460867 8.655951329631113 104.79721
8.364351004608672 8.655951329631115 112.305069
9.93266598241336 10.278941339248007 107.769071
13.069299280260482 13.524924817237556 105.892106
9.93266598241336 10.278941339248005 117.935964
8.364351004608674 8.655951329631119 109.333208
8.364351004608658 8.655951329631101 111.67941399999998
9.40989320906588 9.737943516457118 107.29983000000001
8.887123777956145 9.196949152421997 104.953623
9.409893209065878 9.737943516457117 111.835828
8.887123777956146 9.196949152421999 117.153895
8.364351004608663 8.655951329631106 117.623137
9.932665982413356 10.278941339248004 120.751412
7.84157823126119 8.114953506840227 110.271691
8.88712377795615 9.196949152422002 110.740932
9.932665982413356 10.278941339248004 118.09237800000001
8.887123777956152 9.196949152422002 107.612657
7.8415782312612 8.114953506840235 118.561619
8.364351004608668 8.655951329631113 121.22065299999998
9.409893209065887 9.737943516457127 120.907825
8.88712377795614 9.196949152421992 106.83058799999999
7.841578231261192 8.114953506840228 108.86396699999999
8.887123777956145 9.196949152421997 113.55637899999999
7.84157823126119 8.114953506840227 106.204933
7.841578231261191 8.114953506840227 117.77955
9.932665982413367 10.278941339248014 111.210173
7.8415782312611935 8.11495350684023 115.589758
9.409893209065888 9.737943516457127 110.428104
8.887123777956145 9.196949152421997 119.18727400000002
8.887123777956143 9.196949152421993 113.71279299999999
7.318805457913712 7.57395568404934 116.528241
9.409893209065878 9.737943516457118 120.59499800000002
7.31880545791371 7.573955684049339 115.433344
9.40989320906589 9.73794351645713 120.438584
8.887123777956143 9.196949152421995 109.020381
8.887123777956146 9.196949152421999 108.081898
9.409893209065881 9.737943516457122 106.04852
8.887123777956148 9.196949152422 114.494862
8.887123777956143 9.196949152421993 111.52300099999998
7.841578231261185 8.114953506840221 113.86920700000002
8.887123777956148 9.196949152422 112.93072399999998
9.409893209065881 9.737943516457122 107.925484
7.841578231261187 8.114953506840223 116.37182700000001
8.364351004608674 8.655951329631117 114.964103
9.409893209065887 9.737943516457127 113.243552
7.841578231261191 8.114953506840227 121.846308
8.88712377795614 9.19694915242199 116.997482
9.409893209065876 9.737943516457115 112.61789700000001
8.88712377795614 9.196949152421992 112.461483
8.887123777956136 9.196949152421988 119.656515
7.318805457913707 7.573955684049336 121.377067
8.887123777956143 9.196949152421995 106.51776099999998
8.887123777956148 9.196949152422 116.058999
2.0910877511521706 2.163987832407782 104.484382
10.455438755760841 10.819939162038896 109.489622
8.364351004608668 8.655951329631112 109.176794
8.887123777956146 9.196949152421997 115.90258600000001
7.318805457913709 7.573955684049337 109.958863
8.88712377795615 9.196949152422002 108.394726
8.364351004608674 8.655951329631119 113.399966
8.887123777956138 9.196949152421988 105.11003699999999
8.887123777956145 9.196949152421997 112.148656
15.400697569554712 -9.424234820764143 105.735692
10.26713171303647 -6.282823213842759 107.45624299999999
11.550521125889412 -7.068174860323955 120.28217000000001
10.908828470739557 -6.675500292332506 117.46672299999999
11.550521125889421 -7.0681748603239605 118.71803300000002
11.550521125889414 -7.068174860323956 118.248792
10.908828470739554 -6.6755002923325035 122.15913499999999
15.400697569554707 -9.42423482076414 105.892106
10.90882847073955 -6.675500292332502 108.551139
10.908828470739548 -6.675500292332501 113.087138
12.192217883592507 -7.460851938813707 112.617897
10.267131713036477 -6.2828232138427635 121.689894
11.550521125889416 -7.068174860323957 117.93596400000001
10.908828470739543 -6.675500292332497 121.064239
12.192217883592512 -7.460851938813709 110.89734599999998
11.550521125889428 -7.068174860323965 112.774311
10.26713171303647 -6.282823213842759 111.053759
10.267131713036466 -6.282823213842756 113.243552
12.192217883592496 -7.4608519388137 119.03085999999999
10.26713171303647 -6.282823213842759 116.21541299999998
10.267131713036473 -6.282823213842761 108.08189799999998
10.908828470739552 -6.675500292332503 120.125757
11.550521125889423 -7.068174860323961 119.656515
10.26713171303646 -6.282823213842753 118.405205
11.550521125889423 -7.068174860323961 111.36658700000001
10.90882847073955 -6.675500292332502 115.27693099999999
8.983738197630313 -5.497469056863276 113.869207
10.908828470739557 -6.675500292332505 111.99224199999999
10.908828470739557 -6.675500292332505 109.802449
10.908828470739547 -6.6755002923325 119.812929
10.908828470739559 -6.675500292332507 109.646036
10.267131713036463 -6.282823213842755 119.343688
9.625434955333388 -5.890146135353016 115.74617200000002
11.550521125889428 -7.068174860323966 118.092378
12.192217883592496 -7.4608519388137 118.874447
11.550521125889428 -7.068174860323965 108.707553
10.26713171303646 -6.282823213842753 116.84106799999999
10.26713171303646 -6.282823213842753 114.651276
9.625434955333388 -5.890146135353016 117.31030899999999
10.26713171303646 -6.282823213842753 109.958863
10.908828470739547 -6.675500292332499 114.02562099999999
10.267131713036463 -6.282823213842755 116.684654
10.90882847073956 -6.675500292332508 106.987002
8.342045542480424 -5.104794488871806 121.53348000000001
12.833914641295594 -7.853529017303453 105.422865
11.550521125889421 -7.0681748603239605 119.96934300000001
10.26713171303647 -6.282823213842759 116.99748199999999
11.550521125889434 -7.0681748603239685 111.523001
10.267131713036473 -6.282823213842761 110.584518
7.7003487847773515 -4.712117410382069 104.64079599999998
10.908828470739547 -6.6755002923325 110.11527699999999
10.908828470739538 -6.675500292332495 114.80768899999998
12.192217883592505 -7.460851938813705 119.500102
12.192217883592498 -7.460851938813701 112.30506900000002
11.55052112588943 -7.068174860323967 107.769071
12.192217883592516 -7.460851938813712 109.333208
10.267131713036466 -6.282823213842756 121.377067
11.550521125889418 -7.068174860323958 111.679414
10.267131713036479 -6.282823213842764 104.953623
10.908828470739548 -6.675500292332501 111.835828
10.267131713036472 -6.28282321384276 117.153895
10.908828470739538 -6.675500292332495 117.62313699999999
11.550521125889418 -7.068174860323958 120.75141200000002
10.908828470739545 -6.675500292332498 110.271691
11.550521125889427 -7.068174860323964 110.740932
11.55052112588942 -7.06817486032396 107.612657
8.98373819763031 -5.497469056863274 118.56161900000001
10.26713171303647 -6.282823213842759 121.22065299999998
10.908828470739548 -6.675500292332501 108.86396699999999
11.550521125889434 -7.0681748603239685 113.556379
11.550521125889412 -7.068174860323955 115.589758
10.908828470739543 -6.675500292332497 109.17679399999999
10.26713171303647 -6.282823213842759 107.29983
9.625434955333384 -5.890146135353014 106.204933
10.267131713036468 -6.282823213842758 117.77955
12.192217883592514 -7.46085193881371 111.210173
10.908828470739559 -6.675500292332507 110.428104
10.90882847073955 -6.675500292332502 109.020381
9.62543495533338 -5.890146135353011 114.49486199999998
10.267131713036473 -6.282823213842761 107.143416
12.833914641295577 -7.853529017303442 119.187274
11.550521125889425 -7.068174860323963 113.712793
10.267131713036479 -6.282823213842764 115.120517
11.550521125889428 -7.068174860323965 112.46148300000002
10.908828470739547 -6.675500292332499 106.83058799999999
10.267131713036457 -6.282823213842751 122.002722
9.62543495533338 -5.890146135353011 115.433344
12.833914641295594 -7.853529017303453 109.489622
5.133565856518232 -3.1414116069213778 104.484382
12.19221788359251 -7.4608519388137085 106.04852
9.625434955333393 -5.890146135353019 120.907825
14.117304054148534 -8.638880663784647 105.579278
9.62543495533338 -5.890146135353012 116.37182700000001
11.55052112588943 -7.068174860323967 114.964103
12.192217883592507 -7.460851938813707 105.266451
11.550521125889421 -7.0681748603239605 107.925484
11.550521125889432 -7.068174860323968 120.438584
10.908828470739557 -6.675500292332506 108.394726
9.62543495533338 -5.890146135353012 114.33844800000001
10.267131713036463 -6.282823213842755 116.058999
11.550521125889427 -7.068174860323964 105.110037
10.90882847073955 -6.675500292332502 106.51776099999998
9.625434955333384 -5.890146135353014 120.59499799999999
11.550521125889418 -7.068174860323959 106.674175
11.550521125889434 -7.0681748603239685 115.902586
10.267131713036466 -6.282823213842756 106.361347
10.267131713036477 -6.2828232138427635 113.399966
10.267131713036472 -6.28282321384276 104.79721
7.700348784777343 -4.7121174103820636 116.528241
10.908828470739543 -6.675500292332497 114.182034
10.908828470739557 -6.675500292332505 112.93072399999998
10.267131713036473 -6.282823213842761 121.84630799999998
12.192217883592512 -7.460851938813709 112.14865599999999
9.625434955333386 -5.890146135353015 108.238312
-5.851268247619843 -17.080993749784806 105.735692
-3.657042265086228 -10.675619956074717 114.33844800000001
-3.900845498413223 -11.387329166523187 106.674175
-4.144648731740225 -12.09903837697168 117.46672299999999
-4.388450406362541 -12.810743037257048 118.71803300000002
-4.1446487317402205 -12.099038376971667 118.248792
-3.9008454984132226 -11.387329166523186 108.238312
-3.900845498413223 -11.387329166523187 122.159135
-5.851268247619841 -17.0809937497848 105.892106
-4.144648731740222 -12.099038376971672 108.551139
-4.388450406362541 -12.810743037257048 107.925484
-4.3884504063625425 -12.810743037257051 107.143416
-4.632253639689538 -13.522452247705527 112.617897
-3.9008454984132284 -11.387329166523203 121.06423900000001
-4.388450406362541 -12.810743037257048 110.89734600000001
-3.9008454984132244 -11.387329166523191 114.025621
-3.900845498413227 -11.3873291665232 111.053759
-4.8760568730165375 -14.23416145815401 113.243552
-4.144648731740219 -12.099038376971661 119.03086
-4.144648731740223 -12.099038376971675 116.215413
-4.14464873174022 -12.099038376971663 114.182034
-5.363661780965846 -15.657575328887843 105.579278
-4.144648731740221 -12.099038376971668 106.36134699999998
-4.144648731740219 -12.099038376971661 118.40520500000001
-4.14464873174022 -12.099038376971665 111.36658699999998
-4.632253639689542 -13.522452247705537 111.52300099999998
-4.144648731740225 -12.099038376971679 111.99224199999999
-4.144648731740225 -12.099038376971679 109.802449
-4.388450406362544 -12.810743037257058 119.34368800000001
-4.14464873174022 -12.099038376971663 115.74617199999999
-4.144648731740223 -12.099038376971675 120.28217
-3.1694373571369168 -9.252206085340875 117.31030900000002
-4.876056873016534 -14.234161458154 118.874447
-1.9504227492066124 -5.693664583261596 104.484382
-4.876056873016532 -14.234161458153995 105.266451
-3.413239031759234 -9.963910745626247 108.707553
-3.900845498413223 -11.387329166523187 116.84106799999999
-3.900845498413223 -11.387329166523187 114.651276
-4.388450406362543 -12.810743037257055 112.774311
-4.144648731740225 -12.09903837697168 110.584518
-3.657042265086231 -10.675619956074724 109.95886299999998
-3.9008454984132244 -11.387329166523191 116.684654
-4.144648731740227 -12.099038376971684 106.987002
-4.144648731740222 -12.099038376971672 122.002722
-4.144648731740226 -12.099038376971682 109.646036
-3.6570422650862318 -10.675619956074728 121.53348
-4.144648731740219 -12.099038376971661 119.969343
-4.388450406362539 -12.810743037257044 111.679414
-4.144648731740222 -12.099038376971672 107.45624299999999
-4.144648731740221 -12.099038376971668 110.11527699999999
-4.388450406362544 -12.810743037257057 112.930724
-3.6570422650862326 -10.67561995607473 114.80768899999998
-4.144648731740226 -12.099038376971682 107.769071
-4.388450406362538 -12.81074303725704 119.500102
-3.65704226508623 -10.675619956074723 104.79721
-3.9008454984132284 -11.387329166523203 112.305069
-4.632253639689537 -13.522452247705523 117.935964
-3.657042265086231 -10.675619956074724 109.333208
-4.144648731740223 -12.099038376971674 120.125757
-4.144648731740223 -12.099038376971674 104.953623
-4.388450406362539 -12.810743037257042 111.835828
-4.144648731740219 -12.099038376971661 119.656515
-4.144648731740224 -12.099038376971677 117.153895
-4.144648731740218 -12.099038376971658 117.62313699999999
-4.388450406362539 -12.810743037257044 120.75141200000002
-4.63225363968954 -13.522452247705532 105.42286499999999
-3.6570422650862295 -10.675619956074721 110.271691
-4.144648731740225 -12.09903837697168 110.740932
-4.14464873174022 -12.099038376971663 118.092378
-4.388450406362541 -12.810743037257048 107.612657
-4.144648731740222 -12.099038376971672 118.561619
-3.900845498413227 -11.3873291665232 121.22065299999998
-4.144648731740221 -12.09903837697167 108.86396699999999
-3.9008454984132253 -11.387329166523195 106.830588
-3.900845498413229 -11.387329166523205 115.276931
-4.144648731740223 -12.099038376971674 113.55637899999999
-4.144648731740225 -12.099038376971679 116.058999
-3.9008454984132266 -11.387329166523198 109.176794
-4.1446487317402205 -12.099038376971667 107.29983
-3.9008454984132226 -11.387329166523186 106.20493300000001
-4.388450406362541 -12.810743037257048 117.77955
-4.632253639689541 -13.522452247705534 111.210173
-4.388450406362544 -12.810743037257057 110.428104
-3.900845498413229 -11.387329166523205 115.433344
-3.6570422650862335 -10.675619956074733 115.12051700000002
-4.632253639689542 -13.522452247705537 112.461483
-4.388450406362539 -12.810743037257044 120.59499800000002
-4.388450406362545 -12.81074303725706 109.48962200000001
-4.388450406362545 -12.81074303725706 120.438584
-4.144648731740222 -12.099038376971672 109.020381
-3.65704226508623 -10.675619956074723 104.640796
-3.4132390317592347 -9.96391074562625 106.04852000000001
-3.6570422650862273 -10.675619956074714 113.86920700000002
-4.144648731740221 -12.099038376971668 119.812929
-4.144648731740223 -12.099038376971674 119.18727400000002
-3.6570422650862313 -10.675619956074726 115.589758
-4.144648731740218 -12.099038376971658 116.371827
-3.900845498413229 -11.387329166523205 114.964103
-4.144648731740218 -12.099038376971658 121.84630800000001
-4.144648731740221 -12.09903837697167 113.087138
-4.14464873174022 -12.099038376971665 116.997482
-4.144648731740224 -12.099038376971677 108.081898
-4.3884504063625425 -12.810743037257053 105.110037
-3.6570422650862295 -10.675619956074721 106.517761
-3.9008454984132266 -11.387329166523198 120.907825
-3.4132390317592343 -9.963910745626249 114.494862
-3.9008454984132293 -11.387329166523207 121.689894
-3.900845498413227 -11.3873291665232 113.712793
-3.6570422650862273 -10.675619956074714 115.902586
-4.144648731740225 -12.09903837697168 108.394726
-4.144648731740223 -12.099038376971674 113.399966
-3.6570422650862278 -10.675619956074716 116.528241
-4.63225363968954 -13.522452247705532 112.14865599999999
-3.657042265086233 -10.675619956074732 121.377067
-17.196775223113367 1.9152185624591471 105.735692
-11.962974899588483 1.33232604907984 114.338448
-13.458344371946861 1.4988665390285716 120.28217000000001
-11.962974899588467 1.3323260490798383 106.674175
-11.962974899588486 1.3323260490798405 117.46672299999999
-12.710662025857836 1.4155965602404523 118.248792
-11.962974899588485 1.3323260490798403 108.55113899999999
-11.96297489958848 1.3323260490798396 114.182034
-13.458344371946884 1.4988665390285743 113.087138
-11.962974899588472 1.332326049079839 112.617897
-12.710662025857852 1.4155965602404539 121.68989399999998
-13.458344371946867 1.498866539028572 121.064239
-14.206031498216245 1.5821370501891872 110.89734599999998
-13.458344371946879 1.4988665390285736 112.774311
-11.215287773319119 1.2490555379192267 114.025621
-14.206031498216225 1.582137050189185 119.03085999999999
-12.710662025857845 1.4155965602404532 116.215413
-11.962974899588483 1.33232604907984 108.08189799999998
-12.710662025857843 1.415596560240453 120.125757
-16.449088096843987 1.831948051298532 105.579278
-11.962974899588474 1.3323260490798392 106.361347
-14.206031498216245 1.5821370501891872 119.656515
-11.962974899588467 1.3323260490798383 118.405205
-11.962974899588485 1.3323260490798403 115.276931
-14.20603149821625 1.5821370501891878 111.52300099999998
-11.215287773319105 1.2490555379192252 113.86920700000002
-13.458344371946865 1.4988665390285718 111.992242
-11.96297489958848 1.3323260490798396 109.802449
-12.710662025857838 1.4155965602404523 119.812929
-12.710662025857852 1.4155965602404539 109.646036
-14.953718624485612 1.665407561349801 119.343688
-11.962974899588485 1.3323260490798403 115.746172
-13.45834437194688 1.4988665390285736 118.092378
-13.458344371946874 1.498866539028573 118.874447
-6.729174576063608 0.7494335357005337 104.484382
-14.953718624485594 1.665407561349799 105.266451
-12.710662025857848 1.4155965602404537 108.707553
-11.962974899588467 1.3323260490798383 116.84106799999999
-12.710662025857834 1.415596560240452 114.651276
-11.215287773319115 1.2490555379192263 117.31030899999999
-11.962974899588486 1.3323260490798405 114.80768899999998
-12.710662025857854 1.415596560240454 109.95886299999998
-11.96297489958847 1.3323260490798388 116.684654
-12.710662025857854 1.415596560240454 106.987002
-11.215287773319124 1.2490555379192272 115.12051700000002
-9.71991830096071 1.0825150479704917 121.53348000000001
-13.458344371946872 1.4988665390285727 119.96934300000001
-13.45834437194688 1.4988665390285736 116.997482
-13.458344371946879 1.4988665390285736 110.115277
-13.45834437194688 1.4988665390285736 112.930724
-13.45834437194688 1.4988665390285736 107.456243
-13.458344371946863 1.4988665390285718 119.500102
-10.467600647049764 1.1657850267586143 104.79721
-12.710662025857848 1.4155965602404537 112.305069
-11.962974899588474 1.3323260490798392 113.243552
-13.45834437194688 1.4988665390285738 107.769071
-17.94446234938272 1.9984890736197598 105.892106
-14.206031498216236 1.5821370501891863 117.935964
-13.458344371946879 1.4988665390285736 109.33320800000001
-13.458344371946867 1.498866539028572 111.679414
-10.467600647049753 1.165785026758613 104.953623
-14.206031498216245 1.5821370501891872 111.835828
-9.719918300960725 1.0825150479704932 117.153895
-13.458344371946886 1.4988665390285745 117.62313700000001
-12.710662025857841 1.4155965602404528 120.75141199999999
-11.962974899588465 1.332326049079838 105.42286499999999
-12.710662025857834 1.415596560240452 110.271691
-14.206031498216243 1.582137050189187 110.740932
-12.710662025857841 1.4155965602404528 118.561619
-11.96297489958848 1.3323260490798396 121.22065299999998
-12.710662025857836 1.4155965602404523 106.83058799999999
-12.71066202585784 1.4155965602404526 108.86396699999999
-13.458344371946877 1.4988665390285734 109.176794
-13.458344371946884 1.4988665390285743 113.556379
-11.962974899588465 1.332326049079838 106.20493300000001
-14.20603149821624 1.5821370501891865 117.77955
-13.458344371946875 1.4988665390285731 107.143416
-14.206031498216246 1.5821370501891874 111.210173
-11.215287773319117 1.2490555379192265 115.589758
-13.45834437194688 1.4988665390285738 111.053759
-12.710662025857852 1.4155965602404539 110.428104
-13.458344371946874 1.498866539028573 111.36658700000001
-9.719918300960712 1.082515047970492 115.433344
-12.710662025857827 1.4155965602404512 118.718033
-11.215287773319124 1.2490555379192272 113.71279299999999
-14.20603149821625 1.5821370501891878 112.461483
-10.467600647049746 1.1657850267586123 116.528241
-13.45834437194687 1.4988665390285725 110.584518
-13.458344371946867 1.498866539028572 120.59499800000002
-13.458344371946882 1.498866539028574 120.438584
-13.458344371946867 1.498866539028572 109.020381
-11.215287773319114 1.249055537919226 104.640796
-12.710662025857848 1.4155965602404537 114.494862
-12.710662025857847 1.4155965602404534 120.907825
-13.45834437194687 1.4988665390285725 107.612657
-11.215287773319108 1.2490555379192254 116.37182700000001
-11.962974899588485 1.3323260490798403 114.964103
-13.458344371946872 1.4988665390285727 107.925484
-11.215287773319105 1.2490555379192252 108.394726
-12.710662025857836 1.4155965602404523 107.29983
-11.962974899588474 1.3323260490798392 121.377067
-13.458344371946877 1.4988665390285734 116.058999
-14.206031498216243 1.582137050189187 106.04852
-12.710662025857841 1.4155965602404528 106.51776099999998
-14.206031498216241 1.5821370501891867 119.187274
-12.710662025857829 1.4155965602404514 109.48962199999998
-12.710662025857843 1.415596560240453 113.399966
-11.962974899588483 1.33232604907984 121.84630799999998
-9.719918300960728 1.0825150479704937 108.238312
-14.206031498216245 1.5821370501891872 112.14865599999999
-12.710662025857832 1.4155965602404519 105.11003699999999
-13.458344371946884 1.4988665390285743 115.902586
-1.949859539655442 17.94981156896658 105.735692
-1.3811506371104856 12.714451056752644 106.67417499999999
-1.299906359770295 11.966541045977722 117.46672299999999
-1.4623943950324836 13.462356285922278 118.71803300000002
-1.4623943950324827 13.462356285922269 118.248792
-1.3811506371104845 12.714451056752633 108.238312
-1.2999063597702927 11.966541045977703 122.159135
-1.2999063597702947 11.96654104597772 108.55113899999999
-1.4623943950324836 13.462356285922278 107.925484
-1.3811506371104847 12.714451056752635 114.182034
-1.3811506371104854 12.714451056752642 113.087138
-1.299906359770295 11.966541045977722 121.689894
-1.462394395032483 13.46235628592227 117.93596400000001
-1.4623943950324831 13.462356285922272 121.064239
-1.4623943950324834 13.462356285922276 110.89734600000001
-1.2186620824301024 11.218631035202787 114.025621
-1.2186620824301035 11.218631035202796 111.053759
-1.3811506371104845 12.714451056752633 119.03086
-1.2999063597702951 11.966541045977724 119.812929
-1.3811506371104862 12.71445105675265 108.081898
-1.4623943950324847 13.462356285922287 120.12575700000001
-1.868615262315249 17.20190155819164 105.57927800000002
-1.4623943950324838 13.46235628592228 119.656515
-1.3811506371104845 12.714451056752633 118.40520500000001
-1.381150637110485 12.714451056752637 111.36658699999998
-1.2999063597702947 11.96654104597772 115.276931
-1.2999063597702945 11.966541045977719 111.52300099999998
-1.462394395032483 13.46235628592227 111.992242
-1.3811506371104865 12.714451056752651 109.802449
-1.3811506371104867 12.714451056752655 109.646036
-1.5436386723726756 14.210266296697212 119.34368800000001
-1.381150637110486 12.714451056752647 120.28217
-1.299906359770293 11.966541045977705 117.310309
-1.4623943950324847 13.462356285922287 114.338448
-1.4623943950324838 13.46235628592228 118.874447
-1.462394395032485 13.46235628592229 105.266451
-1.3811506371104856 12.714451056752644 116.841068
-1.381150637110485 12.714451056752637 112.77431099999998
-1.2186620824301013 11.218631035202776 110.58451799999999
-1.2186620824301022 11.218631035202783 115.74617200000002
-1.2186620824301027 11.218631035202788 114.80768899999998
-1.4623943950324847 13.462356285922287 109.958863
-1.4623943950324836 13.462356285922278 116.684654
-1.381150637110487 12.714451056752656 106.987002
-1.4623943950324838 13.46235628592228 115.12051700000002
-1.4623943950324827 13.462356285922269 105.422865
-1.3811506371104845 12.714451056752633 119.969343
-1.299906359770294 11.966541045977715 116.99748199999999
-1.0561740471679129 9.72281579525822 104.640796
-1.3811506371104854 12.71445105675264 110.11527699999999
-1.4623943950324827 13.462356285922269 119.500102
-1.4623943950324847 13.462356285922287 112.305069
-2.0311038169956332 18.697721579741508 105.892106
-1.381150637110486 12.714451056752647 116.215413
-1.381150637110486 12.714451056752647 109.33320800000001
-1.2999063597702936 11.96654104597771 121.377067
-1.2186620824301007 11.218631035202769 111.67941399999998
-1.2186620824301013 11.218631035202776 104.953623
-1.462394395032483 13.46235628592227 111.835828
-1.2999063597702942 11.966541045977717 117.153895
-1.381150637110484 12.71445105675263 117.62313699999999
-1.3811506371104856 12.714451056752644 120.75141199999999
-1.1374178050899104 10.470721024427851 110.271691
-1.5436386723726763 14.210266296697219 110.740932
-1.4623943950324847 13.462356285922287 118.092378
-1.3811506371104867 12.714451056752655 107.612657
-1.1374178050899106 10.470721024427855 118.56161900000001
-1.3811506371104858 12.714451056752646 121.220653
-1.2186620824301024 11.218631035202787 121.53348
-1.4623943950324845 13.462356285922285 120.907825
-1.2999063597702931 11.966541045977706 116.058999
-1.4623943950324825 13.462356285922267 115.589758
-1.3811506371104854 12.714451056752642 108.86396699999999
-1.218662082430103 11.218631035202792 109.17679399999999
-1.299906359770294 11.966541045977715 107.29983
-1.3811506371104858 12.714451056752646 113.55637899999999
-1.2999063597702925 11.966541045977701 106.20493300000001
-1.2999063597702938 11.966541045977714 117.77955
-1.5436386723726758 14.210266296697213 107.14341600000002
-1.5436386723726767 14.210266296697222 111.210173
-1.4623943950324847 13.462356285922287 110.428104
-1.4623943950324831 13.462356285922272 109.020381
-1.5436386723726763 14.210266296697217 119.187274
-1.3811506371104854 12.714451056752642 113.71279299999999
-1.299906359770293 11.966541045977705 116.52824099999998
-1.4623943950324831 13.462356285922272 120.59499800000002
-1.3811506371104851 12.714451056752639 106.83058799999999
-1.218662082430103 11.218631035202792 122.002722
-1.2999063597702947 11.96654104597772 115.433344
-1.462394395032485 13.46235628592229 109.48962200000001
-0.6499531798851467 5.983270522988854 104.484382
-1.462394395032485 13.46235628592229 120.438584
-1.3811506371104851 12.714451056752639 106.04852
-1.2999063597702925 11.966541045977701 114.49486199999998
-1.2186620824301009 11.218631035202772 113.86920700000002
-1.2999063597702942 11.966541045977717 104.79721
-1.4623943950324845 13.462356285922285 113.243552
-1.218662082430102 11.218631035202781 121.846308
-1.4623943950324827 13.462356285922269 112.61789700000001
-1.462394395032483 13.46235628592227 106.517761
-1.3811506371104851 12.714451056752639 112.461483
-1.2999063597702925 11.966541045977701 115.90258599999999
-1.381150637110484 12.71445105675263 116.371827
-1.2186620824301024 11.218631035202787 114.651276
-1.3811506371104865 12.714451056752651 112.93072399999998
-1.2186620824301027 11.218631035202788 106.361347
-1.2186620824301024 11.218631035202787 108.707553
-1.299906359770294 11.966541045977715 107.45624299999999
-1.2999063597702931 11.966541045977706 107.769071
-1.4623943950324831 13.462356285922272 108.39472600000002
-1.2186620824301015 11.218631035202778 114.964103
-1.462394395032483 13.46235628592227 113.39996600000002
-1.3811506371104847 12.714451056752635 105.11003699999999
-1.3811506371104858 12.714451056752646 112.148656
17.09678560432753 5.80496421913614 105.735692
10.685489864112222 3.6281022503676157 117.153895
11.397857069551673 3.8699761460907562 120.28217
12.11022427499112 4.111850041813896 106.67417499999999
11.397857069551687 3.869976146090761 117.46672299999999
11.397857069551684 3.86997614609076 118.24879199999998
11.397857069551666 3.869976146090754 108.238312
17.809152809766967 6.046838114859278 105.892106
11.397857069551685 3.8699761460907602 108.55113899999999
12.822586926060712 4.353722391167171 107.925484
10.685489864112226 3.6281022503676166 113.087138
8.548392802163765 2.90248210956807 121.53348
11.397857069551684 3.86997614609076 121.06423900000001
12.110224274991127 4.111850041813899 110.897346
12.822586926060719 4.353722391167174 112.774311
10.68548986411224 3.628102250367621 114.025621
12.110224274991124 4.111850041813898 111.053759
13.534954131500147 4.595596286890306 119.03085999999999
12.822586926060707 4.353722391167168 116.215413
9.973122658672802 3.3862283546444845 120.125757
12.110224274991111 4.111850041813893 114.182034
11.397857069551675 3.869976146090757 106.361347
13.534954131500164 4.595596286890313 119.656515
11.397857069551668 3.8699761460907545 118.405205
12.110224274991106 4.1118500418138915 116.371827
12.11022427499112 4.111850041813896 115.27693099999999
12.110224274991127 4.111850041813899 111.99224199999999
10.685489864112226 3.6281022503676166 109.802449
13.53495413150017 4.595596286890314 119.81292900000001
12.11022427499113 4.1118500418138995 109.646036
13.534954131500156 4.595596286890309 119.34368800000001
11.39785706955167 3.8699761460907554 117.310309
13.534954131500147 4.595596286890306 118.874447
11.397857069551668 3.8699761460907545 116.84106799999999
12.110224274991129 4.111850041813899 110.584518
12.110224274991106 4.1118500418138915 114.80768899999998
11.397857069551668 3.8699761460907545 109.958863
12.110224274991118 4.111850041813896 116.68465399999998
12.822586926060707 4.353722391167168 106.98700200000002
12.822586926060707 4.353722391167168 122.002722
13.534954131500164 4.595596286890313 105.42286499999999
12.11022427499111 4.111850041813892 119.969343
10.685489864112235 3.6281022503676197 104.640796
12.110224274991117 4.111850041813895 110.11527699999999
13.534954131500163 4.595596286890312 107.456243
12.822586926060705 4.353722391167168 119.500102
12.110224274991124 4.111850041813898 122.15913499999999
12.82258692606072 4.353722391167174 112.305069
11.397857069551671 3.869976146090756 107.769071
12.110224274991117 4.111850041813895 117.935964
12.110224274991124 4.111850041813898 109.33320800000001
11.397857069551675 3.869976146090757 121.377067
12.110224274991122 4.111850041813897 104.953623
12.110224274991118 4.111850041813896 111.835828
10.685489864112233 3.628102250367619 110.271691
12.822586926060715 4.353722391167172 118.561619
10.685489864112233 3.628102250367619 121.220653
12.110224274991126 4.111850041813898 120.907825
12.110224274991118 4.111850041813896 108.86396699999999
11.397857069551675 3.869976146090757 106.830588
12.110224274991127 4.111850041813899 116.058999
11.397857069551668 3.8699761460907545 115.589758
12.110224274991111 4.111850041813893 109.17679399999999
11.397857069551666 3.869976146090754 106.20493300000001
11.397857069551678 3.869976146090758 117.77955
11.397857069551664 3.8699761460907536 111.67941399999998
11.397857069551662 3.8699761460907522 120.751412
12.110224274991127 4.111850041813899 107.143416
13.534954131500166 4.595596286890313 111.210173
11.397857069551682 3.8699761460907594 110.428104
12.822586926060714 4.353722391167172 111.36658700000001
11.397857069551678 3.869976146090758 109.020381
12.110224274991117 4.111850041813895 115.43334399999999
12.822586926060712 4.353722391167171 118.71803300000002
11.397857069551666 3.869976146090754 114.49486199999998
14.247321336939589 4.837470182613444 119.187274
12.822586926060724 4.353722391167175 116.52824100000001
11.397857069551666 3.869976146090754 109.489622
11.397857069551685 3.8699761460907602 115.746172
7.123658391284878 2.4187343181217935 104.484382
11.397857069551684 3.86997614609076 108.08189799999998
12.110224274991118 4.111850041813896 111.52300099999998
12.11022427499113 4.1118500418138995 107.612657
10.685489864112247 3.6281022503676237 112.930724
12.822586926060723 4.3537223911671745 114.964103
11.397857069551675 3.869976146090757 113.243552
14.247321336939594 4.837470182613447 105.266451
12.110224274991106 4.1118500418138915 121.84630800000001
12.822586926060714 4.353722391167172 115.12051700000002
11.39785706955168 3.8699761460907585 116.99748199999999
13.534954131500152 4.595596286890308 118.09237800000001
12.82258692606071 4.35372239116717 107.29983000000001
11.397857069551684 3.86997614609076 114.338448
10.685489864112226 3.6281022503676166 113.86920700000002
12.822586926060719 4.353722391167174 112.46148300000002
10.685489864112238 3.6281022503676206 106.04852
12.822586926060717 4.353722391167173 105.110037
11.397857069551684 3.86997614609076 106.51776099999998
9.973122658672803 3.386228354644485 115.902586
12.110224274991126 4.111850041813898 120.43858399999999
10.68548986411224 3.628102250367621 114.651276
11.397857069551687 3.869976146090761 121.689894
11.39785706955168 3.8699761460907585 113.712793
9.260760007603205 3.1443560052912076 104.79721000000002
14.247321336939596 4.837470182613447 105.57927800000002
11.397857069551677 3.8699761460907576 108.707553
12.822586926060705 4.353722391167168 112.61789700000001
11.397857069551668 3.8699761460907545 113.556379
11.397857069551664 3.8699761460907536 108.394726
12.110224274991129 4.111850041813899 110.740932
12.110224274991106 4.1118500418138915 117.62313699999999
12.822586926060708 4.353722391167169 120.59499800000002
12.110224274991122 4.111850041813897 113.399966
10.68548986411223 3.628102250367618 112.148656
9.38247059560049 -15.426176879203869 105.735692
6.254980397066991 -10.28411791946924 107.45624299999999
5.864043497407091 -9.641359522167255 117.153895
6.254980397066992 -10.284117919469244 114.338448
6.254980397066987 -10.284117919469235 120.28217
7.036851697013953 -11.5696306047326 106.674175
6.254980397066994 -10.284117919469248 117.46672299999999
5.864043497407097 -9.641359522167265 118.248792
6.645917296726875 -10.926876316771203 108.238312
6.64591729672688 -10.926876316771212 108.551139
6.254980397066987 -10.284117919469235 113.087138
6.254980397066985 -10.284117919469232 121.53347999999998
5.864043497407099 -9.641359522167269 121.68989399999998
6.6459172967268785 -10.926876316771208 117.935964
7.036851697013952 -11.5696306047326 121.064239
7.036851697013954 -11.569630604732602 110.89734600000001
7.036851697013958 -11.56963060473261 112.774311
6.254980397066986 -10.284117919469233 114.025621
6.254980397066991 -10.28411791946924 111.053759
6.2549803970669835 -10.28411791946923 119.03085999999999
6.645917296726882 -10.926876316771216 116.215413
6.645917296726883 -10.926876316771216 108.081898
7.036851697013959 -11.56963060473261 120.12575700000001
6.645917296726876 -10.926876316771205 114.182034
7.818725496333736 -12.855147399336548 105.57927800000002
7.036851697013955 -11.569630604732605 119.656515
6.645917296726875 -10.926876316771203 118.40520500000001
6.645917296726873 -10.9268763167712 116.371827
6.254980397066993 -10.284117919469246 115.276931
6.645917296726884 -10.926876316771217 111.99224199999999
5.864043497407093 -9.641359522167258 109.802449
7.427788596673853 -12.21238900203459 119.81292900000001
6.645917296726886 -10.92687631677122 109.646036
7.427788596673846 -12.212389002034577 119.34368800000001
6.254980397066993 -10.284117919469246 115.746172
6.645917296726876 -10.926876316771205 118.092378
6.254980397066985 -10.284117919469232 117.310309
7.036851697013955 -11.569630604732605 118.874447
0.0 -0.0 104.484382
7.818725496333735 -12.855147399336547 105.266451
7.036851697013958 -11.56963060473261 108.707553
6.2549803970669835 -10.28411791946923 116.84106799999999
5.864043497407101 -9.64135952216727 114.651276
5.864043497407095 -9.641359522167262 110.58451799999999
6.645917296726873 -10.9268763167712 114.80768899999998
6.645917296726879 -10.92687631677121 116.68465399999998
7.4277885966738495 -12.212389002034584 106.987002
6.254980397066995 -10.28411791946925 115.120517
7.03685169701395 -11.569630604732597 105.422865
6.645917296726875 -10.926876316771203 119.969343
6.645917296726879 -10.92687631677121 111.52300099999998
5.864043497407097 -9.641359522167265 104.640796
6.254980397066983 -10.28411791946923 110.115277
6.645917296726886 -10.92687631677122 107.769071
7.427788596673846 -12.212389002034577 119.500102
5.473106597747213 -8.998601124865305 104.79721
6.254980397066992 -10.284117919469244 112.305069
9.382470595600486 -15.426176879203862 105.892106
6.645917296726882 -10.926876316771216 109.33320800000001
7.427788596673847 -12.212389002034579 111.679414
6.254980397066991 -10.28411791946924 107.29983
6.645917296726881 -10.926876316771214 104.953623
7.036851697013951 -11.569630604732598 111.835828
7.0368516970139625 -11.569630604732618 117.62313700000001
7.427788596673848 -12.21238900203458 111.36658699999998
5.8640434974070965 -9.641359522167264 110.271691
7.036851697013954 -11.569630604732602 107.612657
5.8640434974071045 -9.641359522167276 118.561619
6.645917296726879 -10.92687631677121 115.589758
5.864043497407098 -9.641359522167267 108.86396699999999
6.254980397066983 -10.28411791946923 106.20493300000001
5.864043497407097 -9.641359522167265 117.77955
7.427788596673847 -12.212389002034579 107.14341600000002
7.427788596673851 -12.212389002034586 111.210173
6.2549803970669915 -10.284117919469242 110.428104
5.864043497407104 -9.641359522167274 113.556379
5.864043497407094 -9.64135952216726 115.433344
5.864043497407094 -9.64135952216726 114.49486199999998
7.427788596673849 -12.212389002034582 119.187274
6.645917296726878 -10.926876316771207 112.461483
7.036851697013961 -11.569630604732614 116.52824100000001
6.254980397066987 -10.284117919469235 120.594998
7.03685169701395 -11.569630604732597 106.830588
6.254980397066983 -10.28411791946923 109.489622
6.254980397066983 -10.28411791946923 120.43858399999999
5.473106597747214 -8.998601124865306 109.020381
6.25498039706699 -10.284117919469239 120.907825
6.645917296726876 -10.926876316771205 109.17679399999999
7.03685169701396 -11.569630604732613 114.964103
6.6459172967268865 -10.926876316771223 113.243552
7.427788596673847 -12.212389002034579 107.92548400000001
5.4731065977472095 -8.9986011248653 121.846308
6.645917296726873 -10.9268763167712 118.718033
6.254980397066991 -10.28411791946924 116.99748199999999
6.645917296726885 -10.926876316771219 108.394726
6.2549803970669915 -10.284117919469242 113.869207
5.473106597747214 -8.998601124865306 116.058999
9.382470595600486 -15.426176879203862 106.04852
6.645917296726881 -10.926876316771214 121.220653
6.64591729672688 -10.926876316771212 106.51776099999998
5.864043497407104 -9.641359522167274 113.71279299999999
7.427788596673848 -12.21238900203458 112.617897
6.2549803970669915 -10.284117919469242 112.930724
6.6459172967268865 -10.926876316771223 109.95886299999998
7.036851697013957 -11.569630604732609 110.740932
5.864043497407102 -9.641359522167273 106.361347
5.864043497407098 -9.641359522167267 113.399966
6.64591729672688 -10.926876316771212 120.75141199999999
7.036851697013957 -11.569630604732609 105.110037
6.25498039706699 -10.284117919469239 112.148656
