ply
format ascii 1.0
element vertex 940
property float32 x
property float32 y
property float32 z
element face 0
property list uint8 int32 vertex_indices
end_header
-5.6787598784257245 15.01475511295201 126.12234700000002
-5.412625832587985 14.311091353430527 125.49669200000001
-5.412625832587977 14.311091353430504 128.624967
-4.880357740912497 12.903763834387536 109.07324899999999
-5.412625832587979 14.31109135343051 111.732282
-5.41262583258798 14.311091353430513 116.581108
-5.146491786750235 13.607427593909017 109.38607600000002
-4.348091350709034 11.49644081407074 108.604007
-5.146491786750235 13.607427593909016 114.54773000000002
-4.880357740912492 12.903763834387526 117.05035
-4.614225396546774 12.200104573592222 130.189104
-5.146491786750239 13.607427593909026 128.78138100000004
-4.880357740912493 12.903763834387528 120.022211
-5.412625832587976 14.311091353430502 130.971173
-5.146491786750239 13.607427593909028 118.30166
-5.412625832587982 14.311091353430518 109.698904
-5.146491786750238 13.607427593909025 118.770901
-4.081957304871289 10.792777054549239 107.978352
-5.412625832587979 14.31109135343051 122.994072
-5.146491786750235 13.607427593909017 119.70938300000002
-5.146491786750241 13.607427593909032 109.229662
-4.348091350709037 11.496440814070747 107.66552499999999
-5.146491786750235 13.607427593909016 120.96069299999999
-5.146491786750238 13.607427593909025 110.168145
-4.614225396546779 12.200104573592233 128.468553
-4.348091350709039 11.496440814070748 108.447594
-4.880357740912497 12.903763834387536 127.999312
-5.412625832587982 14.31109135343052 110.480972
-5.412625832587982 14.311091353430518 114.078488
-4.348091350709039 11.49644081407075 123.306899
-4.61422539654678 12.200104573592236 110.7938
-4.61422539654678 12.200104573592235 107.821939
-4.880357740912498 12.903763834387538 119.39655599999999
-4.880357740912494 12.903763834387531 114.391316
-4.880357740912498 12.903763834387538 123.619727
-5.412625832587977 14.311091353430504 129.094208
-5.146491786750237 13.607427593909021 121.586348
-5.4126258325879775 14.311091353430506 119.55297
-5.146491786750235 13.607427593909016 127.37365699999998
-5.1464917867502376 13.607427593909023 125.18386400000001
-5.412625832587979 14.31109135343051 129.250622
-5.146491786750234 13.607427593909014 120.335038
-5.412625832587982 14.311091353430518 109.855317
-3.5496909146678335 9.38545403423246 107.196284
-5.1464917867502376 13.607427593909023 113.922075
-5.412625832587981 14.311091353430516 113.45283300000001
-5.146491786750233 13.607427593909012 125.027451
-4.8803577409124985 12.90376383438754 127.060829
-4.880357740912491 12.903763834387522 115.016971
-4.614225396546777 12.200104573592231 112.201523
-5.146491786750237 13.607427593909021 117.832418
-5.412625832587976 14.311091353430502 124.871037
-5.4126258325879775 14.311091353430507 125.96593300000002
-5.146491786750236 13.60742759390902 127.530071
-4.880357740912492 12.903763834387524 113.14000599999999
-5.146491786750239 13.607427593909026 122.524831
-4.880357740912489 12.903763834387515 126.748002
-5.146491786750233 13.60742759390901 117.676005
-4.880357740912495 12.903763834387533 110.63738599999999
-5.146491786750241 13.607427593909033 126.904416
-4.614225396546779 12.200104573592233 112.827178
-4.88035774091249 12.903763834387519 110.01173100000001
-5.412625832587978 14.311091353430509 120.804279
-2.7512887771546053 7.274462755667986 107.03987
-4.614225396546776 12.200104573592228 128.155726
-4.614225396546775 12.200104573592226 108.760421
-4.880357740912492 12.903763834387524 122.055589
-4.880357740912496 12.903763834387535 126.435174
-5.146491786750241 13.607427593909032 125.340278
-5.146491786750233 13.607427593909012 117.51959100000002
-5.412625832587981 14.311091353430516 122.212003
-5.146491786750239 13.607427593909026 111.10662700000002
-5.146491786750238 13.607427593909025 129.719863
-5.14649178675024 13.60742759390903 122.83765800000002
-5.146491786750239 13.607427593909026 124.40179599999999
-6.211026268629187 16.42207813326881 130.34551800000003
-5.146491786750237 13.607427593909021 108.916835
-5.4126258325879775 14.311091353430507 129.876277
-4.348091350709035 11.496440814070741 122.368417
-4.880357740912494 12.903763834387531 121.27352099999999
-5.146491786750235 13.607427593909017 119.86579700000001
-4.61422539654678 12.200104573592236 117.206763
-4.348091350709038 11.496440814070748 112.357937
10.905406877281958 7.155817804951097 114.86055699999999
12.163382171816735 7.98126541200674 112.983592
12.163382171816739 7.981265412006742 118.770901
13.421361487664571 8.806715657733633 120.804279
13.421361487664555 8.806715657733623 127.84289799999999
12.163382171816732 7.981265412006738 116.737522
13.421361487664567 8.806715657733632 120.335038
13.421361487664559 8.806715657733625 130.501932
12.792371829740643 8.39399053487018 123.463313
12.163382171816728 7.981265412006736 121.117107
11.534392513892811 7.56854028914329 109.54249
11.534392513892813 7.568540289143291 124.714623
10.905406877281955 7.155817804951093 115.79904
12.792371829740645 8.39399053487018 114.704143
10.905406877281939 7.1558178049510826 111.41945499999999
13.421361487664571 8.806715657733633 114.234902
12.163382171816739 7.981265412006743 123.306899
10.90540687728194 7.155817804951083 125.653106
12.792371829740652 8.393990534870186 112.514351
12.792371829740656 8.39399053487019 116.111867
12.792371829740656 8.393990534870188 115.642626
11.534392513892831 7.568540289143302 112.670765
10.905406877281946 7.155817804951088 110.16814500000001
10.27641721935803 6.743092682087643 108.29118000000001
10.90540687728195 7.1558178049510905 121.42993400000002
12.792371829740658 8.39399053487019 128.937794
12.163382171816734 7.9812654120067394 124.558209
11.534392513892815 7.568540289143292 121.74276199999998
13.421361487664567 8.806715657733632 127.68648400000001
12.163382171816732 7.981265412006738 127.06082900000001
11.534392513892831 7.568540289143302 117.988832
13.421361487664562 8.806715657733626 130.189104
11.534392513892826 7.568540289143299 110.950214
12.16338217181674 7.981265412006744 120.02221100000001
11.534392513892811 7.568540289143289 115.486212
12.792371829740656 8.393990534870188 113.609247
13.421361487664559 8.806715657733625 129.719863
12.79237182974065 8.393990534870184 117.363177
10.276417219358038 6.743092682087648 121.899176
11.534392513892822 7.568540289143297 118.458073
12.16338217181673 7.981265412006737 129.407035
12.163382171816739 7.981265412006743 118.927315
11.534392513892817 7.568540289143293 120.960693
10.905406877281944 7.155817804951087 119.24014200000002
11.53439251389283 7.568540289143301 113.765661
11.53439251389283 7.568540289143301 130.658345
11.534392513892827 7.5685402891433 115.955453
12.792371829740661 8.393990534870191 120.49145200000001
9.64742756143412 6.330367559224201 108.134766
10.905406877281939 7.1558178049510826 125.340278
10.905406877281953 7.155817804951092 110.011731
13.421361487664559 8.806715657733625 130.03269
11.53439251389283 7.568540289143301 111.888696
11.53439251389283 7.568540289143301 122.681244
11.53439251389283 7.568540289143301 127.21724299999998
12.79237182974066 8.393990534870191 113.29642
14.050347124275437 9.219438141925835 130.81475900000004
11.534392513892822 7.568540289143297 108.916835
12.792371829740654 8.393990534870186 129.563449
12.163382171816746 7.9812654120067466 123.932554
12.792371829740645 8.39399053487018 122.368417
12.792371829740656 8.393990534870188 116.268281
12.16338217181674 7.981265412006744 112.82717800000002
12.163382171816728 7.981265412006735 120.64786600000001
12.16338217181674 7.981265412006744 118.614487
11.534392513892822 7.568540289143297 118.30166
11.534392513892813 7.568540289143291 111.26304100000002
11.534392513892824 7.568540289143298 123.15048600000001
12.163382171816727 7.981265412006734 126.12234700000002
11.53439251389283 7.568540289143301 109.07324899999999
11.534392513892817 7.568540289143293 111.732282
13.421361487664562 8.806715657733626 114.54773000000002
12.16338217181673 7.981265412006737 109.38607600000002
12.792371829740658 8.39399053487019 117.519591
12.792371829740643 8.39399053487018 122.055589
12.163382171816732 7.981265412006738 117.05035000000001
10.905406877281937 7.155817804951082 128.781381
13.421361487664559 8.806715657733625 130.971173
12.163382171816723 7.981265412006732 126.591588
9.647427561434114 6.330367559224197 109.698904
12.79237182974066 8.393990534870191 128.468553
12.792371829740642 8.393990534870179 119.70938300000002
10.905406877281957 7.155817804951095 109.22966199999999
9.018437903510208 5.917642436360758 107.665525
13.421361487664571 8.806715657733633 122.837658
10.90540687728195 7.15581780495109 125.496692
12.79237182974065 8.393990534870184 122.212003
12.79237182974064 8.393990534870179 127.999312
10.276417219358041 6.743092682087649 108.447594
13.421361487664559 8.806715657733625 114.078488
13.421361487664559 8.806715657733625 117.676005
10.276417219358027 6.7430926820876405 110.7938
12.163382171816727 7.981265412006734 113.45283300000001
11.534392513892826 7.568540289143299 115.173385
12.163382171816744 7.981265412006746 126.435174
10.905406877281948 7.155817804951089 110.32455900000001
12.792371829740636 8.393990534870175 124.871037
12.163382171816728 7.981265412006735 114.39131600000002
12.163382171816739 7.981265412006743 123.61972700000001
12.79237182974064 8.393990534870179 129.094208
11.534392513892815 7.568540289143292 121.586348
10.905406877281953 7.155817804951092 127.37365699999998
12.792371829740658 8.39399053487019 112.04511000000001
9.018437903510202 5.9176424363607545 107.821939
12.163382171816737 7.981265412006741 125.18386400000001
10.276417219358025 6.74309268208764 109.85531700000001
11.53439251389282 7.5685402891432965 115.32979799999998
10.90540687728195 7.1558178049510905 113.922075
11.534392513892811 7.568540289143289 128.155726
12.16338217181674 7.981265412006744 121.273521
12.792371829740656 8.393990534870188 112.201523
12.792371829740652 8.393990534870186 117.832418
12.163382171816739 7.981265412006742 119.39655600000002
12.16338217181673 7.981265412006737 118.14524599999999
12.16338217181674 7.981265412006744 128.62496700000003
12.163382171816732 7.981265412006738 127.530071
11.534392513892817 7.568540289143293 113.14000599999999
12.163382171816743 7.981265412006745 123.77614100000001
10.276417219358041 6.743092682087649 111.575868
13.421361487664567 8.806715657733632 131.12758699999998
12.163382171816744 7.981265412006746 122.994072
12.792371829740661 8.393990534870191 126.748002
12.163382171816734 7.9812654120067394 117.20676300000001
11.534392513892831 7.568540289143303 124.245382
12.163382171816739 7.981265412006743 122.524831
10.276417219358038 6.743092682087648 110.637386
12.163382171816746 7.9812654120067466 126.904416
12.792371829740643 8.39399053487018 126.27876100000002
12.163382171816739 7.981265412006743 124.40179599999999
9.018437903510208 5.917642436360759 108.760421
10.905406877281946 7.155817804951088 110.48097200000001
11.534392513892827 7.5685402891433 119.55296999999999
11.534392513892815 7.568540289143292 115.016971
12.163382171816725 7.981265412006733 116.893936
12.792371829740647 8.393990534870182 125.027451
12.792371829740647 8.393990534870182 129.250622
11.534392513892826 7.568540289143299 119.08372799999998
12.163382171816735 7.98126541200674 116.424695
10.905406877281944 7.155817804951087 111.106627
10.27641721935804 6.7430926820876484 120.178624
12.163382171816744 7.981265412006746 116.581108
9.64742756143412 6.330367559224201 108.604007
12.792371829740654 8.393990534870186 119.86579700000001
10.276417219358025 6.74309268208764 107.978352
11.534392513892815 7.568540289143292 124.088968
12.792371829740643 8.39399053487018 128.312139
12.792371829740647 8.393990534870182 130.345518
13.421361487664571 8.806715657733633 112.357937
12.163382171816743 7.981265412006745 125.809519
12.792371829740652 8.393990534870186 131.284
10.276417219358041 6.743092682087649 125.965933
13.421361487664564 8.806715657733628 129.876277
6.502483293127581 4.266744583578212 107.509111
10.434368168907417 -10.13767351763985 122.994072
11.513526839169424 -11.18614699449553 130.501932
10.434368168907413 -10.137673517639847 123.61972700000001
5.578161052102233 -5.419549574983816 107.03987
12.053102724613492 -11.710380381326097 131.127587
10.434368168907417 -10.13767351763985 116.268281
10.434368168907415 -10.137673517639849 114.704143
9.894788833776408 -9.613436779212005 112.983592
10.434368168907413 -10.137673517639849 118.30166
9.355212948332333 -9.089203392381432 115.955453
10.973947504038426 -10.661910256067696 127.530071
10.434368168907413 -10.137673517639849 128.312139
10.973947504038408 -10.661910256067678 124.871037
9.894788833776396 -9.613436779211995 119.865797
8.276054278070317 -8.040729915525743 109.855317
10.973947504038426 -10.661910256067696 129.719863
10.434368168907403 -10.137673517639836 108.760421
9.894788833776396 -9.613436779211995 120.960693
7.736474942939317 -7.516493177097908 107.978352
11.513526839169437 -11.186146994495543 120.491452
10.434368168907405 -10.137673517639838 114.54773000000002
9.894788833776392 -9.613436779211991 127.842898
10.973947504038419 -10.661910256067689 120.335038
9.35521294833234 -9.089203392381439 117.05035000000001
9.8947888337764 -9.613436779211996 118.927315
10.434368168907408 -10.137673517639842 130.03269
9.894788833776403 -9.613436779212 111.575868
10.973947504038412 -10.661910256067682 119.55297
9.355212948332339 -9.089203392381437 109.386076
10.973947504038414 -10.661910256067683 123.463313
10.434368168907401 -10.137673517639836 126.12234700000002
9.894788833776392 -9.613436779211991 116.893936
10.434368168907412 -10.137673517639845 119.39655600000002
11.51352683916943 -11.186146994495536 129.876277
9.894788833776406 -9.613436779212003 127.999312
9.894788833776408 -9.613436779212007 124.245382
10.434368168907412 -10.137673517639845 113.29642
8.276054278070319 -8.040729915525747 112.357937
10.973947504038426 -10.661910256067696 123.776141
10.97394750403842 -10.66191025606769 131.284
10.434368168907419 -10.137673517639852 115.016971
8.815633613201332 -8.564966653953594 118.614487
10.434368168907405 -10.13767351763984 118.14524599999999
9.355212948332346 -9.089203392381444 115.486212
9.894788833776396 -9.613436779211995 116.424695
9.894788833776403 -9.613436779212 127.373657
10.97394750403842 -10.66191025606769 120.64786600000001
9.894788833776392 -9.613436779211991 109.54249
10.97394750403842 -10.66191025606769 126.90441599999998
9.894788833776394 -9.613436779211993 124.558209
9.894788833776394 -9.613436779211991 124.714623
10.434368168907405 -10.13767351763984 115.79903999999999
8.276054278070324 -8.04072991552575 110.324559
9.894788833776401 -9.613436779211998 111.419455
9.355212948332351 -9.08920339238145 112.04511
9.894788833776403 -9.613436779212 110.63738599999999
10.434368168907405 -10.13767351763984 119.70938300000002
9.355212948332348 -9.089203392381446 118.770901
10.973947504038412 -10.661910256067682 123.306899
10.973947504038415 -10.661910256067685 114.234902
8.815633613201337 -8.564966653953599 116.737522
10.973947504038417 -10.661910256067687 120.178624
11.513526839169426 -11.186146994495532 129.094208
10.434368168907417 -10.13767351763985 126.278761
10.434368168907413 -10.137673517639847 118.458073
9.894788833776408 -9.613436779212005 117.988832
7.736474942939312 -7.516493177097903 115.64262599999999
9.894788833776401 -9.613436779211998 111.106627
10.434368168907401 -10.137673517639836 109.698904
9.355212948332346 -9.089203392381444 112.670765
9.355212948332348 -9.089203392381446 109.073249
8.815633613201332 -8.564966653953594 108.29118000000001
8.815633613201326 -8.564966653953588 114.860557
9.355212948332346 -9.089203392381444 110.7938
10.973947504038426 -10.661910256067696 130.81475899999998
9.894788833776406 -9.613436779212003 130.345518
8.815633613201335 -8.564966653953597 111.263041
9.894788833776403 -9.613436779212 123.15048600000001
9.894788833776401 -9.613436779211998 114.391316
10.4343681689074 -10.137673517639834 125.965933
10.97394750403842 -10.66191025606769 130.189104
11.513526839169426 -11.186146994495532 128.937794
9.894788833776394 -9.613436779211993 121.74276199999998
10.97394750403842 -10.66191025606769 127.060829
11.513526839169424 -11.18614699449553 129.563449
9.355212948332333 -9.089203392381433 126.435174
10.43436816890741 -10.137673517639845 127.686484
9.355212948332346 -9.089203392381444 120.804279
9.355212948332342 -9.08920339238144 112.827178
10.434368168907401 -10.137673517639836 125.027451
7.736474942939318 -7.516493177097909 108.447594
10.434368168907413 -10.137673517639849 120.02221100000001
9.894788833776405 -9.613436779212003 117.519591
10.434368168907413 -10.137673517639849 121.273521
10.434368168907401 -10.137673517639836 119.08372800000001
9.894788833776389 -9.613436779211987 125.65310599999998
9.894788833776397 -9.613436779211995 125.809519
9.355212948332351 -9.08920339238145 107.665525
9.894788833776408 -9.613436779212007 129.407035
9.894788833776396 -9.613436779211995 121.89917599999998
10.434368168907417 -10.13767351763985 127.21724299999998
9.355212948332342 -9.08920339238144 113.609247
9.8947888337764 -9.613436779211998 126.591588
8.276054278070312 -8.04072991552574 128.155726
9.8947888337764 -9.613436779211996 110.480972
9.355212948332351 -9.08920339238145 111.88869600000001
9.894788833776403 -9.613436779212002 115.173385
9.894788833776405 -9.613436779212003 117.36317699999998
7.736474942939311 -7.516493177097902 110.16814500000001
10.434368168907405 -10.137673517639838 128.468553
10.4343681689074 -10.137673517639834 125.496692
10.434368168907405 -10.13767351763984 119.240142
9.894788833776394 -9.613436779211993 107.821939
9.894788833776406 -9.613436779212003 113.765661
9.894788833776396 -9.613436779211995 122.055589
9.894788833776396 -9.613436779211995 128.624967
9.894788833776396 -9.613436779211995 111.732282
10.973947504038419 -10.661910256067689 130.658345
10.4343681689074 -10.137673517639833 126.74800200000001
10.434368168907415 -10.137673517639849 122.83765800000002
10.973947504038415 -10.661910256067685 129.250622
9.355212948332346 -9.089203392381444 113.922075
9.8947888337764 -9.613436779211998 112.51435100000002
9.355212948332335 -9.089203392381433 125.340278
11.513526839169424 -11.18614699449553 130.971173
9.894788833776392 -9.613436779211991 121.11710699999999
9.355212948332348 -9.089203392381446 110.011731
9.894788833776394 -9.613436779211993 124.088968
10.973947504038415 -10.661910256067685 125.183864
10.434368168907403 -10.137673517639836 122.68124400000002
9.894788833776408 -9.613436779212007 116.111867
8.815633613201328 -8.56496665395359 115.329798
10.973947504038414 -10.661910256067683 108.916835
9.355212948332342 -9.08920339238144 122.212003
8.276054278070333 -8.040729915525759 117.676005
9.35521294833235 -9.089203392381448 121.586348
9.894788833776394 -9.613436779211991 123.93255399999998
10.973947504038415 -10.661910256067685 122.368417
9.89478883377639 -9.61343677921199 113.452833
7.736474942939317 -7.516493177097908 112.20152299999998
9.894788833776397 -9.613436779211995 122.52483099999999
9.894788833776397 -9.613436779211995 128.78138100000004
9.355212948332342 -9.08920339238144 117.832418
10.434368168907415 -10.137673517639849 114.078488
11.513526839169435 -11.18614699449554 116.581108
10.973947504038419 -10.661910256067689 117.20676299999998
10.434368168907412 -10.137673517639845 121.429934
8.81563361320133 -8.564966653953592 113.140006
10.434368168907413 -10.137673517639847 110.950214
8.815633613201328 -8.564966653953592 107.509111
8.276054278070319 -8.040729915525747 109.229662
8.815633613201339 -8.5649666539536 108.13476600000001
9.8947888337764 -9.613436779211996 124.40179599999999
9.35521294833234 -9.089203392381439 108.604007
5.578161052102227 -5.419549574983811 107.352697
6.657319722364255 -6.46802305183951 107.19628399999999
-8.021587108358366 -13.029121013823266 126.591588
-6.8383465070043306 -11.107233889086205 110.16814500000001
-8.810413335392619 -14.310377731736072 130.501932
-4.077448408371152 -6.622825137052095 107.03987
-7.232758359718798 -11.747860200174749 114.704143
-8.021587108358366 -13.029121013823266 127.217243
-7.2327583597188 -11.74786020017475 118.30166
-6.443932132684544 -10.46660348226194 115.955453
-8.02158710835837 -13.029121013823271 116.581108
-7.627172734038588 -12.388490606999017 128.312139
-8.021587108358373 -13.029121013823277 119.86579700000001
-7.627172734038586 -12.388490606999014 124.714623
-7.627172734038586 -12.388490606999014 115.642626
-7.627172734038581 -12.388490606999005 120.96069299999999
-8.021587108358371 -13.029121013823275 114.078488
-8.810413335392624 -14.31037773173608 120.491452
-8.416001482678155 -13.669751420647533 112.51435100000002
-7.627172734038586 -12.388490606999014 121.429934
-6.838346507004338 -11.107233889086217 127.842898
-7.627172734038583 -12.388490606999007 116.737522
-7.627172734038583 -12.388490606999007 117.05035000000001
-8.021587108358377 -13.029121013823282 122.52483100000002
-7.627172734038587 -12.388490606999015 118.927315
-7.232758359718802 -11.747860200174753 119.08372799999998
-7.6271727340385835 -12.388490606999008 130.03269
-6.838346507004334 -11.10723388908621 111.575868
-7.232758359718803 -11.747860200174754 119.55296999999999
-7.232758359718802 -11.747860200174753 126.12234700000002
-8.021587108358371 -13.029121013823273 117.363177
-7.627172734038578 -12.388490606999 116.893936
-8.416001482678162 -13.669751420647545 123.463313
-7.232758359718803 -11.747860200174754 109.855317
-7.232758359718804 -11.747860200174756 127.999312
-8.416001482678151 -13.669751420647527 124.245382
-7.232758359718796 -11.747860200174744 113.29642000000001
-9.20482770971241 -14.951008138560342 130.65834500000003
-7.627172734038578 -12.388490606999 125.496692
-7.62717273403859 -12.388490606999019 116.268281
-7.232758359718805 -11.74786020017476 116.111867
-7.627172734038591 -12.38849060699902 115.016971
-7.2327583597188045 -11.747860200174758 118.614487
-7.232758359718792 -11.747860200174738 115.486212
-7.627172734038581 -12.388490606999005 127.37365699999998
-8.02158710835837 -13.029121013823271 115.32979800000001
-6.049517758364765 -9.82597307543769 121.117107
-8.021587108358371 -13.029121013823275 120.64786600000001
-8.021587108358371 -13.029121013823275 126.90441599999998
-7.627172734038588 -12.388490606999017 120.02221100000001
-7.232758359718795 -11.747860200174742 124.558209
-8.416001482678157 -13.669751420647536 129.250622
-8.810413335392628 -14.310377731736086 115.79904
-7.627172734038588 -12.388490606999017 110.32455900000001
-8.021587108358373 -13.029121013823278 111.41945500000001
-7.2327583597188 -11.74786020017475 108.916835
-6.838346507004337 -11.107233889086215 112.04511
-6.83834650700433 -11.107233889086203 110.63738599999999
-7.627172734038588 -12.388490606999017 113.609247
-8.810413335392626 -14.310377731736082 130.189104
-7.62717273403858 -12.388490606999003 109.54249
-7.627172734038586 -12.388490606999014 118.770901
-8.810413335392624 -14.31037773173608 120.17862400000001
-7.232758359718791 -11.747860200174737 123.30689899999999
-8.416001482678155 -13.669751420647533 119.709383
-6.83834650700433 -11.107233889086203 119.24014200000002
-8.416001482678151 -13.669751420647527 130.345518
-8.02158710835837 -13.029121013823273 117.20676299999998
-8.021587108358364 -13.029121013823262 123.932554
-7.62717273403859 -12.388490606999019 126.278761
-7.2327583597188 -11.74786020017475 118.458073
-6.838346507004329 -11.107233889086201 109.69890400000001
-7.627172734038587 -12.388490606999015 114.860557
-6.049517758364756 -9.825973075437675 107.978352
-7.627172734038586 -12.388490606999014 110.7938
-7.627172734038578 -12.388490606999 117.676005
-8.021587108358375 -13.029121013823282 130.81475899999998
-6.443932132684547 -10.466603482261945 111.263041
-8.021587108358375 -13.029121013823282 127.530071
-8.416001482678153 -13.669751420647529 123.77614100000001
-4.077448408371144 -6.622825137052082 107.509111
-8.021587108358375 -13.029121013823282 128.937794
-7.232758359718795 -11.747860200174742 121.74276199999998
-6.44393213268454 -10.466603482261934 127.68648400000001
-7.627172734038579 -12.388490606999001 113.765661
-8.021587108358373 -13.029121013823277 129.563449
-7.627172734038582 -12.388490606999007 109.38607600000002
-8.021587108358371 -13.029121013823275 127.060829
-7.627172734038588 -12.388490606999017 112.82717800000002
-6.443932132684539 -10.466603482261933 117.98883199999999
-5.655103384044978 -9.185342668613425 108.447594
-7.232758359718795 -11.747860200174742 117.832418
-8.416001482678158 -13.669751420647538 117.51959100000002
-7.2327583597188 -11.74786020017475 121.27352099999999
-6.838346507004333 -11.107233889086208 120.804279
-7.62717273403859 -12.388490606999019 122.994072
-7.232758359718791 -11.747860200174737 125.65310599999998
-6.838346507004337 -11.107233889086215 119.396556
-7.627172734038582 -12.388490606999007 129.407035
-7.62717273403859 -12.388490606999019 113.14000600000001
-8.021587108358363 -13.02912101382326 124.871037
-8.021587108358368 -13.02912101382327 111.732282
-6.838346507004334 -11.10723388908621 121.89917599999998
-6.838346507004328 -11.1072338890862 118.145246
-8.021587108358375 -13.029121013823282 129.719863
-8.021587108358377 -13.029121013823282 128.155726
-8.021587108358373 -13.029121013823278 112.35793700000002
-7.232758359718797 -11.747860200174747 110.480972
-7.232758359718793 -11.74786020017474 114.54773
-8.81041333539262 -14.310377731736073 120.335038
-8.021587108358371 -13.029121013823275 115.173385
-6.838346507004335 -11.107233889086212 110.011731
-5.655103384044976 -9.185342668613421 111.106627
-8.021587108358368 -13.02912101382327 125.027451
-7.627172734038583 -12.388490606999007 129.876277
-8.021587108358377 -13.029121013823284 126.748002
-7.627172734038587 -12.388490606999015 124.40179599999999
-5.655103384044973 -9.185342668613417 108.134766
-7.627172734038587 -12.388490606999015 110.950214
-7.62717273403858 -12.388490606999003 108.760421
-7.627172734038578 -12.388490606999 125.965933
-8.021587108358371 -13.029121013823275 112.98359200000002
-7.62717273403859 -12.388490606999019 124.08896800000001
-6.8383465070043306 -11.107233889086205 128.624967
-7.627172734038588 -12.388490606999017 122.212003
-7.62717273403858 -12.388490606999003 122.68124400000002
-6.838346507004331 -11.107233889086206 128.468553
-6.049517758364761 -9.825973075437684 108.29118
-7.627172734038585 -12.388490606999012 125.18386400000001
-8.021587108358368 -13.02912101382327 114.234902
-8.021587108358366 -13.029121013823266 121.586348
-7.2327583597187965 -11.747860200174745 125.809519
-8.021587108358371 -13.029121013823273 126.435174
-8.021587108358377 -13.029121013823284 114.391316
-7.232758359718804 -11.747860200174756 109.07324899999999
-6.838346507004335 -11.107233889086212 116.42469499999999
-7.2327583597188045 -11.747860200174758 123.619727
-8.416001482678155 -13.669751420647533 129.094208
-7.62717273403858 -12.388490606999003 112.201523
-6.443932132684547 -10.466603482261945 111.888696
-7.627172734038587 -12.388490606999015 128.78138100000004
-8.41600148267816 -13.669751420647541 113.922075
-8.416001482678162 -13.669751420647545 122.055589
-6.44393213268454 -10.466603482261934 109.229662
-8.41600148267816 -13.669751420647541 122.837658
-6.83834650700433 -11.107233889086203 108.604007
-8.021587108358375 -13.02912101382328 123.15048600000001
-7.232758359718792 -11.747860200174738 113.452833
-5.260691531330507 -8.544716357524877 107.821939
-7.62717273403859 -12.388490606999019 125.340278
-7.627172734038589 -12.388490606999017 112.670765
-6.443932132684546 -10.466603482261943 122.368417
-4.077448408371149 -6.6228251370520885 107.352697
-4.471862782690938 -7.263455543876356 107.665525
-4.077448408371151 -6.622825137052091 107.196284
-13.039138946923703 4.506203312740061 126.591588
-11.61705151254173 4.014743321869273 110.168145
-11.617051512541748 4.014743321869279 107.03987
-14.461230927228605 4.997664874638894 126.90441599999998
-15.172276917381046 5.243395655588307 114.70414300000002
-13.750184937076153 4.751934093689477 112.983592
-13.750184937076149 4.751934093689476 127.530071
-13.75018493707616 4.75193409368948 121.273521
-13.750184937076156 4.751934093689478 120.804279
-13.750184937076163 4.7519340936894805 127.21724299999998
-13.750184937076138 4.7519340936894725 126.74800200000001
-13.750184937076147 4.751934093689475 119.86579700000001
-13.750184937076153 4.751934093689477 108.604007
-13.750184937076147 4.751934093689475 117.988832
-13.750184937076147 4.751934093689475 129.407035
-11.617051512541739 4.014743321869276 115.642626
-13.750184937076162 4.75193409368948 114.078488
-15.172276917381064 5.243395655588313 120.491452
-14.461230927228605 4.997664874638894 112.514351
-12.328097502694193 4.260474102818693 108.29118
-13.750184937076156 4.751934093689478 121.429934
-14.46123092722859 4.997664874638888 127.84289799999999
-14.461230927228602 4.997664874638893 120.335038
-14.461230927228593 4.99766487463889 119.55297
-13.750184937076149 4.751934093689476 117.05035000000001
-14.461230927228614 4.997664874638897 110.01173100000001
-14.461230927228598 4.997664874638891 130.03268999999997
-13.039138946923707 4.5062033127400625 111.575868
-13.039138946923709 4.506203312740063 109.386076
-13.039138946923712 4.506203312740064 123.46331299999999
-13.039138946923709 4.5062033127400625 126.12234700000002
-13.039138946923709 4.506203312740063 124.871037
-13.750184937076165 4.751934093689481 117.363177
-15.172276917381053 5.2433956555883094 119.39655600000002
-11.617051512541735 4.014743321869275 107.196284
-13.03913894692371 4.506203312740064 127.999312
-14.461230927228614 4.997664874638897 113.29642
-13.039138946923702 4.506203312740061 110.480972
-14.461230927228609 4.997664874638895 112.35793700000002
-14.461230927228613 4.997664874638896 123.776141
-14.461230927228609 4.997664874638895 116.268281
-12.328097502694177 4.260474102818688 115.016971
-13.039138946923712 4.506203312740064 118.614487
-13.750184937076147 4.751934093689475 118.14524599999999
-13.750184937076153 4.751934093689477 116.424695
-15.172276917381064 5.243395655588313 127.37365700000001
-15.172276917381064 5.243395655588313 121.117107
-12.328097502694181 4.260474102818689 120.64786600000001
-13.039138946923693 4.506203312740057 109.54249
-15.883318361610582 5.489124865509684 120.022211
-13.039138946923696 4.506203312740059 124.558209
-15.172276917381053 5.2433956555883094 129.250622
-13.750184937076147 4.751934093689475 115.79903999999999
-14.461230927228605 4.997664874638894 110.32455900000001
-13.039138946923705 4.506203312740062 111.419455
-13.750184937076153 4.751934093689477 108.916835
-13.750184937076154 4.751934093689478 112.04511
-12.328097502694185 4.260474102818691 110.63738599999999
-13.75018493707614 4.7519340936894725 116.893936
-15.883318361610572 5.48912486550968 130.189104
-12.328097502694197 4.260474102818695 121.586348
-14.461230927228616 4.997664874638898 114.391316
-13.750184937076156 4.751934093689478 118.770901
-13.039138946923691 4.506203312740057 114.234902
-13.75018493707615 4.751934093689476 117.20676300000001
-14.461230927228593 4.99766487463889 123.306899
-15.172276917381044 5.243395655588306 130.345518
-15.883318361610563 5.489124865509677 129.094208
-13.750184937076165 4.751934093689481 123.932554
-12.328097502694181 4.260474102818689 107.35269700000002
-13.750184937076163 4.7519340936894805 126.278761
-13.75018493707614 4.7519340936894725 116.111867
-13.750184937076158 4.751934093689479 115.955453
-13.039138946923705 4.506203312740062 118.458073
-14.461230927228605 4.997664874638894 112.670765
-14.461230927228604 4.997664874638893 122.212003
-13.039138946923691 4.506203312740057 114.86055700000001
-11.617051512541726 4.014743321869272 109.07324899999999
-13.750184937076144 4.751934093689474 112.201523
-10.90600552238928 3.7690125409198574 107.978352
-13.75018493707616 4.75193409368948 111.263041
-14.4612309272286 4.997664874638892 120.960693
-13.039138946923714 4.506203312740065 109.698904
-14.46123092722861 4.997664874638896 123.15048600000001
-13.75018493707614 4.7519340936894725 125.965933
-10.194959532236833 3.523281759970442 107.50911099999999
-15.17227691738105 5.243395655588308 128.937794
-11.617051512541734 4.0147433218692745 107.82193900000001
-14.461230927228607 4.997664874638895 127.68648400000001
-13.75018493707616 4.75193409368948 118.30166
-15.172276917381044 5.243395655588306 127.06082899999998
-15.883318361610572 5.48912486550968 124.714623
-13.039138946923705 4.506203312740062 109.229662
-10.194959532236847 3.523281759970447 125.027451
-11.617051512541748 4.014743321869279 108.447594
-13.039138946923709 4.5062033127400625 110.950214
-13.750184937076142 4.751934093689473 117.51959100000002
-14.461230927228591 4.99766487463889 121.742762
-15.17227691738105 5.243395655588308 114.54773000000002
-14.461230927228597 4.997664874638891 116.737522
-13.750184937076158 4.751934093689479 128.78138100000004
-13.039138946923698 4.506203312740059 121.89917599999998
-13.75018493707616 4.75193409368948 113.609247
-12.328097502694177 4.260474102818688 117.67600499999999
-13.750184937076147 4.751934093689475 124.245382
-12.328097502694192 4.260474102818693 115.486212
-14.461230927228614 4.997664874638897 128.155726
-15.17227691738105 5.243395655588308 120.178624
-13.750184937076158 4.751934093689479 118.927315
-15.17227691738106 5.243395655588311 124.088968
-15.172276917381064 5.243395655588313 125.496692
-15.172276917381044 5.243395655588306 119.240142
-13.750184937076149 4.751934093689476 129.876277
-13.03913894692371 4.506203312740064 111.888696
-13.039138946923712 4.506203312740064 122.837658
-13.039138946923709 4.506203312740063 109.855317
-13.039138946923702 4.506203312740061 124.40179599999999
-10.194959532236837 3.5232817599704433 108.134766
-14.4612309272286 4.997664874638892 125.340278
-13.750184937076156 4.751934093689478 115.173385
-13.750184937076144 4.751934093689474 108.760421
-13.039138946923703 4.506203312740061 115.32979799999998
-13.750184937076144 4.751934093689474 122.055589
-14.461230927228607 4.997664874638895 113.922075
-14.461230927228613 4.997664874638896 129.719863
-15.172276917381046 5.243395655588307 125.18386400000001
-13.750184937076158 4.751934093689479 111.10662700000002
-13.750184937076144 4.751934093689474 122.68124400000002
-15.17227691738106 5.243395655588311 116.581108
-13.750184937076162 4.75193409368948 125.809519
-14.461230927228607 4.997664874638895 129.563449
-13.039138946923709 4.5062033127400625 126.435174
-10.194959532236847 3.523281759970447 128.312139
-15.883318361610572 5.48912486550968 113.45283300000001
-13.750184937076147 4.751934093689475 125.653106
-14.461230927228598 4.997664874638891 122.994072
-13.75018493707615 4.751934093689476 117.832418
-13.039138946923712 4.506203312740064 123.619727
-11.617051512541735 4.014743321869275 122.524831
-14.461230927228604 4.997664874638893 119.083728
-13.03913894692371 4.506203312740064 128.468553
-14.461230927228598 4.997664874638891 111.732282
-11.617051512541742 4.014743321869277 128.62496700000003
-13.750184937076142 4.751934093689473 113.765661
-14.461230927228593 4.99766487463889 119.70938300000002
-13.750184937076163 4.7519340936894805 113.14000600000001
-9.48391808800732 3.277552550049073 106.883456
-7.350780117549972 2.540360207200826 106.727042
-13.750184937076156 4.751934093689478 110.7938
-15.17227691738106 5.243395655588311 112.827178
-13.75018493707614 4.7519340936894725 122.36841700000001
-11.617051512541744 4.014743321869278 107.66552499999999
1.6494539423417673 14.454333783563223 126.591588
0.9670859640562167 8.474673322506883 107.03987000000001
1.4788622204318234 12.959421057659288 116.268281
1.4788622204318227 12.95942105765928 118.30166000000001
1.5641578087253547 13.706875031251133 115.955453
1.820046209574598 15.949251288187451 127.53007099999999
1.734750075958183 15.201792535875342 128.312139
1.7347500759581822 15.201792535875335 124.871037
1.4788622204318236 12.95942105765929 121.273521
1.5641578087253527 13.706875031251116 110.01173100000001
1.64945394234177 14.454333783563248 127.21724299999998
1.5641578087253523 13.706875031251112 126.748002
1.5641578087253531 13.706875031251121 119.865797
1.4788622204318227 12.95942105765928 108.604007
1.8200462095745995 15.949251288187465 129.407035
1.393566086815407 12.211962305347164 109.85531700000001
1.6494539423417678 14.454333783563229 108.760421
1.7347500759581838 15.201792535875347 120.960693
1.6494539423417691 14.45433378356324 112.514351
1.5641578087253527 13.706875031251116 114.54773
1.6494539423417682 14.454333783563232 110.637386
1.4788622204318236 12.95942105765929 108.29118
1.8200462095746 15.949251288187469 110.480972
1.6494539423417676 14.454333783563227 127.84289800000002
1.8200462095745995 15.949251288187465 120.335038
1.5641578087253534 13.706875031251123 122.52483099999999
1.4788622204318216 12.959421057659272 119.083728
1.4788622204318236 12.95942105765929 114.234902
1.4788622204318222 12.959421057659277 109.386076
1.4788622204318222 12.959421057659277 123.463313
1.7347500759581838 15.201792535875347 126.12234700000002
1.3935660868154087 12.21196230534718 114.078488
1.3082699531989928 11.46450355303506 117.36317699999998
1.308269953198994 11.46450355303507 116.893936
1.7347500759581826 15.201792535875338 127.999312
1.5641578087253554 13.706875031251139 124.245382
1.6494539423417693 14.454333783563241 113.29642
1.7347500759581853 15.201792535875361 125.49669200000001
1.6494539423417698 14.454333783563246 123.77614100000001
1.3082699531989919 11.464503553035051 107.509111
1.6494539423417676 14.454333783563225 116.111867
1.6494539423417702 14.45433378356325 115.016971
1.649453942341769 14.454333783563238 116.424695
1.7347500759581844 15.201792535875354 127.373657
1.7347500759581842 15.201792535875352 120.64786600000001
1.7347500759581838 15.201792535875347 109.54249
1.478862220431824 12.959421057659293 118.927315
1.6494539423417696 14.454333783563243 118.458073
1.5641578087253525 13.706875031251114 115.79903999999999
1.8200462095745986 15.949251288187458 110.324559
1.7347500759581846 15.201792535875356 111.41945500000001
1.564157808725354 13.706875031251128 108.916835
1.5641578087253531 13.70687503125112 108.134766
1.7347500759581833 15.201792535875343 114.704143
1.4788622204318234 12.959421057659288 117.206763
1.8200462095745984 15.949251288187455 121.58634800000002
1.6494539423417682 14.454333783563232 119.70938300000002
1.6494539423417678 14.454333783563229 114.39131600000002
1.5641578087253523 13.706875031251112 123.30689899999999
1.6494539423417682 14.454333783563232 119.240142
1.6494539423417676 14.454333783563227 129.09420800000004
1.7347500759581842 15.20179253587535 113.45283300000001
1.564157808725353 13.706875031251117 123.93255399999998
1.64945394234177 14.454333783563248 126.278761
1.5641578087253551 13.706875031251137 117.988832
1.393566086815408 12.211962305347173 115.642626
1.734750075958183 15.201792535875342 111.106627
1.7347500759581855 15.201792535875363 120.49145200000001
1.6494539423417698 14.454333783563245 122.212003
1.5641578087253525 13.706875031251114 110.168145
1.4788622204318236 12.95942105765929 111.575868
1.3935660868154067 12.211962305347162 114.860557
1.5641578087253538 13.706875031251126 107.978352
1.4788622204318234 12.959421057659288 110.7938
1.5641578087253547 13.706875031251133 117.676005
1.3935660868154078 12.211962305347171 118.77090099999998
1.8200462095746004 15.949251288187472 111.263041
1.5641578087253527 13.706875031251116 121.429934
1.7347500759581842 15.201792535875352 109.698904
1.4788622204318225 12.959421057659279 123.150486
1.6494539423417685 14.454333783563234 117.05035000000001
1.393566086815409 12.211962305347182 125.965933
1.734750075958184 15.201792535875349 124.558209
1.6494539423417698 14.454333783563246 112.670765
1.7347500759581844 15.201792535875354 127.68648400000001
1.5641578087253554 13.706875031251139 127.060829
1.7347500759581844 15.201792535875354 129.563449
1.564157808725353 13.706875031251117 124.714623
1.7347500759581833 15.201792535875343 120.804279
1.64945394234177 14.454333783563248 109.229662
1.393566086815409 12.211962305347182 108.447594
1.5641578087253531 13.70687503125112 117.832418
1.393566086815409 12.211962305347182 117.519591
1.5641578087253531 13.70687503125112 121.74276199999998
1.649453942341769 14.454333783563238 112.983592
1.7347500759581849 15.201792535875358 120.022211
1.5641578087253543 13.70687503125113 122.994072
1.478862220431822 12.959421057659275 125.653106
1.3935660868154094 12.211962305347186 123.619727
1.5641578087253531 13.706875031251121 116.73752199999998
1.7347500759581844 15.201792535875354 119.396556
1.6494539423417682 14.454333783563232 107.66552500000002
1.7347500759581853 15.201792535875361 128.781381
1.8200462095745986 15.949251288187458 113.14000600000001
1.7347500759581849 15.201792535875358 121.89917599999998
1.7347500759581846 15.201792535875356 113.609247
1.5641578087253545 13.706875031251132 118.145246
1.7347500759581853 15.201792535875361 128.155726
1.6494539423417702 14.45433378356325 126.904416
1.7347500759581835 15.201792535875345 129.250622
1.3082699531989928 11.46450355303506 128.46855299999999
1.7347500759581826 15.201792535875338 128.624967
1.6494539423417676 14.454333783563227 125.027451
1.4788622204318242 12.959421057659295 111.88869600000001
1.7347500759581833 15.201792535875343 122.837658
1.7347500759581829 15.20179253587534 124.40179600000002
1.5641578087253551 13.706875031251137 118.614487
1.5641578087253538 13.706875031251126 115.32979799999998
1.5641578087253527 13.706875031251116 121.11710699999999
1.5641578087253531 13.70687503125112 124.088968
1.6494539423417691 14.45433378356324 125.18386400000001
1.6494539423417691 14.45433378356324 112.04511
1.6494539423417678 14.454333783563229 122.68124400000002
1.6494539423417691 14.45433378356324 113.922075
1.64945394234177 14.454333783563248 116.581108
1.4788622204318227 12.95942105765928 112.201523
1.564157808725353 13.706875031251117 128.937794
1.64945394234177 14.454333783563248 126.435174
1.393566086815408 12.211962305347173 107.35269699999999
1.393566086815408 12.211962305347173 122.368417
1.5641578087253534 13.706875031251123 125.809519
1.564157808725355 13.706875031251135 109.07324899999999
1.5641578087253525 13.706875031251114 115.486212
1.6494539423417678 14.454333783563229 122.055589
1.6494539423417676 14.454333783563227 113.765661
1.7347500759581842 15.20179253587535 110.950214
1.7347500759581829 15.20179253587534 119.55297
1.5641578087253531 13.706875031251121 111.732282
1.6494539423417693 14.454333783563241 115.173385
1.7347500759581838 15.201792535875347 120.178624
1.3935660868154074 12.211962305347168 107.82193900000001
1.5641578087253534 13.706875031251123 125.340278
1.6494539423417698 14.454333783563245 112.82717800000002
1.4788622204318225 12.959421057659279 112.357937
15.215391556733302 1.611121939867097 126.591588
149.87810429359163 15.870239108387281 134.41227500000002
14.467264152540885 1.5319044928355203 125.653106
179.80315263133684 19.03893192504956 134.25586200000004
185.04003489469346 19.59345304135044 134.099448
15.215391556733323 1.6111219398670995 123.61972700000001
15.21539155673331 1.6111219398670982 116.42469500000001
15.215391556733316 1.6111219398670986 116.268281
14.46726415254089 1.5319044928355208 112.983592
15.215391556733303 1.6111219398670973 122.368417
14.467264152540894 1.5319044928355212 118.770901
15.215391556733314 1.6111219398670984 118.30166
13.719136748348479 1.4526870458039447 127.53007099999999
14.467264152540896 1.5319044928355214 110.011731
15.215391556733323 1.6111219398670995 126.748002
14.467264152540885 1.5319044928355203 117.988832
14.467264152540894 1.5319044928355212 115.642626
15.96351896092574 1.6903393868986762 109.855317
14.467264152540881 1.5319044928355199 108.760421
15.963518960925725 1.690339386898675 120.96069300000002
13.71913674834847 1.4526870458039438 112.51435100000002
15.215391556733309 1.611121939867098 114.54773
15.21539155673332 1.611121939867099 110.637386
15.963518960925732 1.6903393868986756 120.335038
14.467264152540887 1.5319044928355205 117.05035000000001
15.215391556733321 1.6111219398670993 122.52483100000002
13.719136748348477 1.4526870458039445 115.955453
13.719136748348475 1.4526870458039443 119.08372799999998
15.2153915567333 1.611121939867097 119.55297
14.467264152540888 1.5319044928355205 114.234902
13.719136748348477 1.4526870458039445 109.386076
13.71913674834846 1.4526870458039427 127.842898
13.71913674834848 1.452687045803945 123.46331299999999
14.4672641525409 1.5319044928355217 114.078488
14.467264152540903 1.531904492835522 117.363177
14.467264152540885 1.5319044928355203 124.87103700000002
13.719136748348479 1.4526870458039447 127.999312
15.963518960925729 1.6903393868986751 121.899176
14.467264152540894 1.5319044928355212 113.29642
15.215391556733316 1.6111219398670986 112.35793700000002
14.467264152540878 1.5319044928355194 125.496692
14.4672641525409 1.5319044928355217 123.77614100000001
15.215391556733307 1.6111219398670977 126.12234700000002
15.963518960925732 1.6903393868986756 115.016971
13.719136748348458 1.4526870458039425 113.452833
14.467264152540892 1.531904492835521 115.48621200000001
15.215391556733307 1.6111219398670977 121.117107
15.215391556733312 1.6111219398670984 120.64786600000001
14.467264152540881 1.5319044928355199 109.54249
15.963518960925736 1.690339386898676 120.02221099999998
14.467264152540888 1.5319044928355205 124.558209
14.467264152540896 1.5319044928355214 118.927315
14.46726415254089 1.5319044928355208 108.916835
15.963518960925722 1.6903393868986745 114.70414300000002
11.474759318766369 1.215035211169293 108.447594
15.2153915567333 1.611121939867097 119.70938300000002
14.467264152540888 1.5319044928355205 117.20676300000001
13.71913674834848 1.452687045803945 118.614487
14.467264152540892 1.531904492835521 111.419455
14.467264152540888 1.5319044928355205 121.586348
14.467264152540883 1.53190449283552 127.37365699999998
13.719136748348474 1.452687045803944 122.994072
13.719136748348465 1.4526870458039431 116.73752199999998
13.719136748348458 1.4526870458039425 119.24014199999999
14.467264152540903 1.531904492835522 123.932554
14.467264152540885 1.5319044928355203 115.79903999999999
14.467264152540896 1.5319044928355214 118.458073
14.467264152540901 1.5319044928355219 126.278761
15.215391556733302 1.611121939867097 127.217243
13.719136748348483 1.4526870458039451 109.698904
15.215391556733312 1.6111219398670984 112.670765
13.719136748348475 1.4526870458039443 118.145246
13.719136748348458 1.4526870458039425 110.168145
15.215391556733323 1.6111219398670995 111.575868
13.719136748348463 1.452687045803943 108.29118
15.215391556733303 1.6111219398670973 120.804279
14.467264152540896 1.5319044928355214 114.860557
14.467264152540894 1.5319044928355212 110.7938
15.963518960925722 1.6903393868986745 117.676005
14.467264152540885 1.5319044928355203 119.86579700000001
14.4672641525409 1.5319044928355217 123.15048600000001
15.21539155673331 1.6111219398670982 126.435174
12.222886722958796 1.2942526582008709 114.391316
13.71913674834846 1.4526870458039427 116.893936
14.467264152540878 1.5319044928355194 128.937794
15.215391556733312 1.6111219398670984 124.088968
12.971014127151209 1.3734701052324474 107.821939
15.215391556733312 1.6111219398670984 127.060829
15.215391556733303 1.6111219398670973 113.765661
12.9710141271512 1.3734701052324463 127.686484
15.215391556733312 1.6111219398670984 111.263041
14.467264152540897 1.5319044928355217 112.82717800000002
14.46726415254088 1.5319044928355197 125.027451
14.467264152540892 1.531904492835521 120.491452
14.467264152540881 1.5319044928355199 108.134766
15.963518960925725 1.690339386898675 110.950214
15.215391556733312 1.6111219398670984 117.832418
13.71913674834846 1.4526870458039427 110.324559
14.46726415254088 1.5319044928355197 117.51959100000002
