ply
format ascii 1.0
element vertex 940
property float32 x
property float32 y
property float32 z
element face 0
property list uint8 int32 vertex_indices
end_header
-3.7931250890122197 6.789668650089156 109.073249
-3.7931250890122166 6.78966865008915 72.159605
-4.526948259222282 8.103207238077507 106.414215
-4.526948259222272 8.10320723807749 106.727042
-27.275429003381735 48.82283628305538 103.911595
-4.893859844327305 8.759976532071667 99.375596
-27.275429003381735 48.82283628305539 93.588288
-4.893859844327304 8.759976532071665 97.498631
-3.7931250890122175 6.789668650089152 74.34939700000001
-4.89385984432731 8.759976532071676 87.644565
-4.893859844327312 8.75997653207168 91.242082
-4.16003667411725 7.446437944083329 82.482912
-4.160036674117248 7.446437944083326 90.929254
-3.7931250890122175 6.789668650089152 109.855317
-4.160036674117251 7.44643794408333 104.53725000000001
-4.526948259222284 8.103207238077509 91.08566799999998
-3.7931250890122183 6.789668650089154 53.859196
-4.52694825922228 8.103207238077504 45.412854
-3.7931250890122175 6.789668650089152 71.846777
-26.9085174182767 48.16606698906119 104.068009
-3.793125089012222 6.78966865008916 51.356576
-4.160036674117251 7.44643794408333 72.003191
-4.16003667411725 7.446437944083329 72.31601800000001
-3.793125089012219 6.789668650089154 88.895875
-4.160036674117254 7.446437944083338 78.88539600000001
-4.160036674117245 7.446437944083321 108.60400700000001
-4.160036674117246 7.446437944083323 79.198223
-4.1600366741172525 7.4464379440833355 63.71326199999999
-4.526948259222281 8.103207238077506 44.943613
-3.7931250890122223 6.78966865008916 70.28264
-3.7931250890122232 6.789668650089162 108.760421
-5.260769083660318 9.41674162714955 95.30883899999999
-3.7931250890122175 6.789668650089152 107.978352
-4.160036674117251 7.44643794408333 82.952153
-4.160036674117247 7.446437944083324 90.77284
-4.160036674117249 7.4464379440833275 83.42139400000002
-4.160036674117248 7.446437944083326 76.226362
-3.7931250890122175 6.789668650089152 78.572568
-3.7931250890122192 6.789668650089155 76.539189
-3.793125089012221 6.789668650089158 76.695603
-3.7931250890122206 6.789668650089157 64.96457200000002
-3.79312508901222 6.7896686500891565 72.941673
-3.793125089012218 6.789668650089153 110.011731
-3.7931250890122183 6.789668650089154 61.054229
-3.7931250890122223 6.78966865008916 50.26168
-3.7931250890122192 6.789668650089155 105.78855999999999
-3.793125089012221 6.789668650089158 64.651745
41.72663790855657 37.23581688225406 101.408975
48.462354094991866 43.24660296663946 116.424695
46.77842594553833 41.743907246142236 133.317379
45.09449420746369 40.24120832324854 125.027451
11.415916863908175 10.187281103717986 13.660864
72.03735895320496 64.28435266079015 22.420033000000014
36.6748498715748 32.72772651836589 83.734222
72.03735895320496 64.28435266079015 29.302237999999992
46.21711536618009 41.24300760517765 124.558209
42.28794848791478 37.73671652321863 96.090908
45.094494207463676 40.24120832324853 127.99931200000002
72.59866953256318 64.78525230175472 29.92789300000002
50.14628224444543 44.749298687136694 117.20676300000001
46.77842594553832 41.74390724614223 123.776141
49.58497166508722 44.248399046172125 118.458073
10.293295705191735 9.185481821788844 113.14000599999999
11.415916863908176 10.187281103717988 15.850656
72.03735895320497 64.28435266079015 28.676583
47.90104351563367 42.745703325674896 126.74800199999999
72.03735895320496 64.28435266079015 9.124865000000009
73.7212906912796 65.78705158368385 24.609826000000005
71.47605196246784 63.78345622222205 10.532589000000007
72.03735895320494 64.28435266079013 8.499210000000001
45.65580478682189 40.74210796421309 121.273521
71.47605196246784 63.78345622222205 4.432453000000014
47.90104351563365 42.74570332567489 122.52483100000002
42.849259067272996 38.2376161641832 97.655045
49.58497166508721 44.24839904617212 120.022211
72.59866953256318 64.78525230175471 28.207342000000004
41.16532732919835 36.734917241289494 101.252561
73.15998011192139 65.28615194271927 18.19686200000001
41.165327329198355 36.7349172412895 93.119047
73.15998011192139 65.28615194271927 5.370935000000004
48.462354094991866 43.24660296663946 117.36317700000001
7.486749985642845 6.680990021758952 40.564028
72.59866953256318 64.78525230175471 29.61506600000001
46.77842594553833 41.743907246142236 132.848138
73.15998011192139 65.28615194271927 19.60458600000001
73.15998011192139 65.28615194271927 23.514930000000014
70.91474138310961 63.282556581257474 1.9298329999999961
46.778425945538324 41.74390724614223 126.278761
70.91474138310961 63.282556581257474 3.3375569999999994
68.66950265429783 61.27896121979567 31.804858000000007
41.16532732919835 36.734917241289494 129.719863
39.48139917974478 35.23222152079225 130.50193200000004
6.925439406284619 6.180090380794376 78.572568
49.58497166508723 44.24839904617214 116.268281
31.623065423214122 28.219639356874186 73.254501
72.03735895320496 64.28435266079015 4.7452799999999975
50.146282244445445 44.7492986871367 133.78662000000003
47.33973293627543 42.24480368471032 122.994072
49.58497166508722 44.248399046172125 121.11710699999999
72.59866953256318 64.78525230175471 19.761
43.97187663736833 39.239412243715854 129.09420800000004
71.47605196246784 63.78345622222205 6.153003999999999
40.60402033846121 36.23402080272139 130.658345
69.23081323365605 61.77986086076023 2.0862470000000073
73.15998011192139 65.28615194271927 28.520170000000007
37.797471030291234 33.72952580029503 89.365117
73.15998011192139 65.28615194271927 18.509690000000006
69.79212022439319 62.28075729932835 6.935072999999999
37.23616045093302 33.22862615933047 87.957393
71.47605196246784 63.78345622222205 5.683763000000001
44.53318721672655 39.74031188468043 132.066069
9.731988714454618 8.684585383220751 13.191622
72.59866953256318 64.78525230175471 19.917413999999997
50.70759282380365 45.25019832810126 117.988832
72.03735895320496 64.28435266079015 9.750520000000016
39.48139917974479 35.23222152079226 130.03268999999997
8.04805697637997 7.1818864603270525 32.899754
46.21711536618011 41.24300760517767 128.62496700000003
71.47605196246784 63.78345622222205 18.04044900000001
51.26890340316187 45.75109796906584 116.73752200000001
44.53318721672657 39.740311884680445 128.781381
42.849259067272996 38.237616164183194 100.314079
7.486749985642837 6.680990021758945 86.862497
48.46235409499188 43.246602966639465 115.173385
40.042709759103 35.73312116175682 92.962633
70.91474138310961 63.282556581257474 7.717141000000017
46.77842594553833 41.74390724614224 125.49669200000001
72.59866953256318 64.78525230175471 20.073827000000005
72.59866953256318 64.78525230175472 28.832997000000006
46.778425945538324 41.74390724614223 133.004552
47.90104351563365 42.74570332567489 115.95545300000002
49.58497166508722 44.248399046172125 122.681244
6.925439406284627 6.180090380794383 77.16484400000002
42.28794848791477 37.736716523218625 97.81145900000001
50.146282244445445 44.7492986871367 118.770901
72.59866953256318 64.78525230175471 21.63796500000001
7.486749985642848 6.680990021758954 84.985532
72.03735895320496 64.28435266079015 4.588866000000005
70.9147413831096 63.28255658125747 2.5554879999999964
43.97187663736833 39.23941224371586 131.753242
72.03735895320497 64.28435266079015 23.045687999999995
41.72663790855656 37.23581688225406 114.078488
48.46235409499188 43.246602966639465 122.36841699999998
71.47605196246782 63.78345622222204 2.868314999999998
42.28794848791477 37.736716523218625 112.827178
7.486749985642845 6.680990021758952 87.175324
51.268903403161865 45.751097969065825 117.676005
47.33973293627546 42.24480368471034 115.016971
42.28794848791478 37.73671652321863 95.46525300000002
73.15998011192139 65.28615194271927 26.643205000000005
42.287948487914775 37.736716523218625 99.53201000000001
71.47605196246785 63.78345622222206 7.560728000000004
6.925439406284626 6.1800903807943826 108.29118
50.146282244445445 44.7492986871367 133.943034
47.90104351563365 42.74570332567489 123.15048600000001
45.65580478682189 40.74210796421309 132.53531
40.604020338461225 36.234020802721396 94.21394300000001
49.02366467435009 43.74750260760402 120.647866
71.47605196246784 63.78345622222205 8.96845100000001
72.03735895320496 64.28435266079015 21.950792000000003
72.03735895320496 64.28435266079015 7.873555000000013
45.65580478682189 40.74210796421309 125.96593299999999
72.59866953256318 64.78525230175471 17.25838
73.15998011192139 65.28615194271927 11.158243999999995
10.854606284549957 9.686381462753419 15.381415
71.47605196246784 63.78345622222205 5.058108000000004
73.15998011192139 65.28615194271927 17.414794
72.03735895320496 64.28435266079015 22.576447000000012
11.415916863908173 10.187281103717986 32.274099
8.609367555738189 7.682786101291621 81.075188
71.47605196246782 63.78345622222204 19.448172000000003
41.726637908556555 37.235816882254056 100.626906
71.47605196246782 63.78345622222204 7.247899999999996
72.59866953256318 64.78525230175471 23.984170999999996
29.93913368513948 26.71694043398049 70.908295
70.35343080375141 62.78165694029292 2.399074000000007
46.778425945538324 41.74390724614223 126.90441600000003
51.26890340316187 45.75109796906584 134.412275
70.91474138310961 63.282556581257474 3.806798000000003
45.094494207463676 40.24120832324853 128.312139
50.70759282380365 45.25019832810126 117.51959100000003
73.15998011192139 65.28615194271927 31.022789000000007
47.90104351563365 42.74570332567489 121.58634799999999
72.59866953256318 64.78525230175471 30.553548000000003
72.59866953256318 64.78525230175472 27.581686999999995
73.15998011192139 65.28615194271927 25.704722
73.15998011192139 65.28615194271927 17.57120700000001
49.023664674350094 43.747502607604034 120.96069300000002
44.533187216726546 39.74031188468042 124.40179600000002
73.7212906912796 65.78705158368385 24.453412000000014
72.03735895320496 64.28435266079015 7.404314000000009
44.53318721672655 39.74031188468043 114.391316
49.58497166508723 44.24839904617214 120.33503800000001
71.47605196246782 63.78345622222204 5.527349000000007
72.59866953256318 64.78525230175471 25.861136000000013
68.66950265429784 61.278961219795676 4.276039000000006
32.74568299330947 29.221435436406857 77.790499
43.41056605801012 38.73851260275129 129.250622
40.042709759103005 35.73312116175683 129.876277
50.146282244445445 44.7492986871367 119.24014199999999
72.59866953256318 64.78525230175471 27.26886000000001
51.26890340316187 45.75109796906584 119.08372800000001
46.21711536618011 41.24300760517767 125.809519
42.849259067272996 38.237616164183194 112.35793700000002
8.048056976379966 7.181886460327049 102.191044
70.35343080375141 62.78165694029292 7.091486000000005
72.59866953256318 64.78525230175471 26.486791000000004
46.21711536618011 41.24300760517767 125.18386399999999
71.47605196246784 63.78345622222205 16.476310999999992
42.84925906727299 38.23761616418319 95.621666
6.925439406284624 6.18009038079438 105.78855999999999
73.1599801119214 65.28615194271929 25.391894999999998
29.939133685139492 26.7169404339805 68.562088
41.72663790855656 37.23581688225406 104.38083600000002
42.849259067272996 38.237616164183194 99.68842400000001
6.3641288269264145 5.679190739829819 74.03657
72.59866953256318 64.78525230175471 9.281279000000008
43.41056605801013 38.73851260275131 99.844838
7.486749985642845 6.680990021758952 67.31077800000001
46.77842594553833 41.743907246142236 125.34027799999998
70.9147413831096 63.28255658125747 3.1811429999999974
72.03735895320496 64.28435266079015 10.689003000000005
42.287948487914775 37.736716523218625 102.347457
73.15998011192139 65.28615194271927 26.173962999999997
46.77842594553831 41.74390724614222 126.12234700000002
72.03735895320496 64.28435266079015 22.107206
46.217115366180096 41.24300760517765 114.704143
70.35343080375141 62.78165694029292 12.096726000000007
72.59866953256318 64.78525230175471 21.481551000000014
7.4867499856428426 6.68099002175895 84.829118
11.415916863908178 10.18728110371799 15.537829
44.53318721672654 39.740311884680416 124.871037
73.15998011192139 65.28615194271927 30.397135000000002
73.15998011192139 65.28615194271927 5.214521000000013
72.03735895320496 64.28435266079015 20.38665500000001
72.59866953256318 64.78525230175471 11.314658000000001
51.26890340316187 45.75109796906584 118.92731500000001
72.59866953256318 64.78525230175472 24.296998
36.11354288083767 32.22683007979779 87.644565
47.33973293627545 42.244803684710334 114.86055699999999
47.33973293627546 42.24480368471034 123.619727
40.60402033846121 36.23402080272139 113.609247
29.377826694402355 26.216043995412388 64.964572
40.04270975910301 35.733121161756834 93.43187400000001
72.03735895320496 64.28435266079015 19.29175900000001
72.59866953256318 64.78525230175471 10.219761000000005
7.486749985642839 6.680990021758946 85.141945
41.72663790855656 37.23581688225406 94.83959800000001
45.65580478682188 40.74210796421309 127.84289799999999
8.609367555738185 7.682786101291618 46.194923
8.60936755573818 7.6827861012916125 80.91877400000001
31.061754843855912 27.718739715909624 72.94167300000001
46.778425945538324 41.74390724614223 120.804279
50.14628224444543 44.749298687136694 116.581108
51.26890340316187 45.75109796906584 118.14524600000001
41.72663790855657 37.23581688225407 101.878216
72.59866953256318 64.78525230175472 22.732861000000014
30.500444264497695 27.21784007494506 72.78526
42.84925906727299 38.23761616418319 95.93449400000002
46.77842594553832 41.74390724614223 124.08896800000001
72.03735895320496 64.28435266079015 24.92265300000001
43.97187663736834 39.23941224371587 131.59682799999996
10.854606284549956 9.686381462753417 54.01561
40.042709759103005 35.73312116175683 93.27546000000001
41.165327329198355 36.7349172412895 93.901115
41.726637908556555 37.235816882254056 111.419455
72.59866953256318 64.78525230175471 31.17920300000001
43.97187663736833 39.23941224371586 128.93779400000003
71.47605196246784 63.78345622222205 26.33037700000001
71.47605196246784 63.78345622222205 11.627485000000007
73.15998011192139 65.28615194271927 11.001830000000005
32.74568299330947 29.221435436406864 74.662225
49.58497166508721 44.24839904617212 115.79903999999999
72.59866953256318 64.78525230175472 28.050927999999995
32.74568299330948 29.221435436406868 76.85201700000002
73.15998011192139 65.28615194271927 17.727620999999992
25.44865622751593 22.709749711056883 54.484851
33.30699357266769 29.72233507737143 78.259741
42.28794848791477 37.736716523218625 96.247321
42.849259067272996 38.237616164183194 97.02939000000002
46.21711536618011 41.24300760517767 128.155726
36.67484987157481 32.7277265183659 84.047049
46.77842594553831 41.74390724614222 123.93255400000001
30.500444264497702 27.217840074945062 71.377536
42.28794848791477 37.736716523218625 99.06276900000002
10.293295705191744 9.185481821788853 13.50445
41.72663790855657 37.23581688225406 111.263041
50.14628224444543 44.749298687136694 118.30166000000001
42.849259067272996 38.2376161641832 99.375596
72.59866953256318 64.78525230175471 16.945552
70.91474138310961 63.282556581257474 9.594105999999996
42.28794848791477 37.73671652321862 95.308839
32.745682993309465 29.221435436406853 74.505811
40.04270975910299 35.73312116175682 130.345518
73.15998011192139 65.28615194271927 27.738101
42.28794848791477 37.73671652321862 131.284
41.72663790855657 37.23581688225407 111.10662700000002
8.048056976379971 7.181886460327053 81.388016
47.339732936275446 42.244803684710334 127.21724300000001
41.16532732919835 36.734917241289494 102.97311200000001
73.15998011192139 65.28615194271927 25.235480999999996
49.58497166508723 44.24839904617214 119.865797
50.70759282380364 45.25019832810125 117.83241799999999
36.113542880837684 32.2268300797978 84.203463
48.462354094991866 43.24660296663946 126.59158800000002
40.604020338461225 36.234020802721396 93.58828800000002
9.170678135096402 8.183685742256186 53.70278299999999
38.35878160964945 34.23042544125959 90.147185
51.26890340316187 45.75109796906584 119.39655600000002
70.3534308037514 62.781656940292905 31.648444
37.79747103029123 33.72952580029502 130.18910399999996
72.59866953256318 64.78525230175471 26.956032000000015
48.46235409499188 43.246602966639465 122.05558899999998
70.35343080375141 62.78165694029292 22.889275000000005
41.16532732919835 36.734917241289494 130.971173
39.48139917974478 35.23222152079225 91.08566800000001
42.849259067273 38.2376161641832 97.342218
47.33973293627545 42.244803684710334 122.21200299999998
72.59866953256318 64.78525230175471 9.437693000000015
41.72663790855656 37.23581688225406 112.670765
50.70759282380365 45.25019832810126 119.709383
46.77842594553833 41.74390724614224 122.83765800000002
70.91474138310961 63.282556581257474 29.77148000000002
31.62306542321413 28.21963935687419 71.06470800000001
43.410566058010126 38.7385126027513 100.78332
47.90104351563365 42.74570332567489 127.060829
72.03735895320496 64.28435266079015 28.989411
48.462354094991866 43.24660296663946 120.49145200000001
72.59866953256316 64.7852523017547 17.884035000000008
70.91474138310961 63.282556581257474 2.7119019999999994
72.03735895320496 64.28435266079015 21.168724000000005
33.8683041520259 30.22323471833599 78.728982
43.41056605801012 38.73851260275129 129.40703500000004
72.03735895320494 64.28435266079013 30.86637600000001
41.726637908556555 37.235816882254056 94.370356
29.377826694402348 26.216043995412385 65.433814
46.778425945538324 41.74390724614223 123.30689900000002
42.28794848791478 37.73671652321863 98.43711400000001
31.623065423214122 28.219639356874186 71.53395
69.79212022439317 62.28075729932834 31.492031000000015
50.146282244445445 44.7492986871367 119.55297000000002
8.048056976379966 7.181886460327049 89.208703
70.91474138310961 63.282556581257474 3.963211000000007
31.061754843855923 27.718739715909635 75.131466
45.6558047868219 40.742107964213105 127.686484
72.59866953256318 64.78525230175471 27.112446000000002
32.18437241395125 28.72053579544229 72.47243199999998
72.59866953256318 64.78525230175472 30.709962
41.16532732919835 36.734917241289494 103.598767
45.65580478682189 40.7421079642131 127.37365700000001
48.46235409499188 43.246602966639465 121.42993400000002
5.802818247568198 5.178291098865252 56.51823000000001
29.377826694402348 26.216043995412385 68.874916
72.03735895320494 64.28435266079013 5.99659
46.21711536618011 41.24300760517767 133.160965
66.98557450484428 59.77626549929844 12.722381000000007
72.59866953256318 64.78525230175471 10.845416000000014
10.854606284549957 9.686381462753419 32.430513
8.609367555738187 7.682786101291619 89.052289
40.60402033846121 36.23402080272139 131.127587
42.849259067272996 38.237616164183194 111.732282
5.802818247568199 5.1782910988652535 49.636025000000004
48.462354094991866 43.24660296663946 126.435174
31.62306542321412 28.219639356874183 70.751881
50.70759282380366 45.25019832810127 134.099448
51.268903403161865 45.751097969065825 118.61448700000003
41.16532732919833 36.73491724128948 129.563449
47.339732936275446 42.24480368471033 123.46331299999999
49.02366467435009 43.74750260760402 116.111867
30.500444264497695 27.21784007494506 69.03133000000001
72.59866953256318 64.78525230175471 19.13534500000001
8.609367555738178 7.682786101291612 80.762361
50.70759282380366 45.25019832810127 117.05034999999998
5.802818247568196 5.178291098865251 45.569268
23.76472807806238 21.207053990559658 55.11050600000001
6.36412882692641 5.679190739829815 56.67464400000001
33.86830415202591 30.223234718335995 78.885396
48.462354094991866 43.24660296663946 115.329798
71.47605196246784 63.78345622222205 20.855895999999998
41.72663790855657 37.23581688225406 105.16290500000001
6.92543940628463 6.180090380794386 64.808159
41.72663790855656 37.23581688225406 97.967873
71.47605196246784 63.78345622222205 22.26362
45.65580478682189 40.7421079642131 125.653106
41.16532732919835 36.7349172412895 95.152425
48.46235409499188 43.246602966639465 115.642626
73.15998011192139 65.28615194271927 18.978931000000017
45.65580478682189 40.7421079642131 128.468553
70.91474138310961 63.282556581257474 8.812037999999998
6.92543940628463 6.180090380794386 57.613126
29.93913368513948 26.71694043398049 67.15436499999998
73.15998011192139 65.28615194271927 25.079067000000006
38.920088600386585 34.7313218798277 91.39849500000001
73.15998011192139 65.28615194271927 29.145825
5.802818247568201 5.178291098865254 61.210642
69.79212022439317 62.28075729932834 11.940313000000016
73.15998011192139 65.28615194271927 24.766240000000007
42.84925906727299 38.23761616418319 131.440414
33.86830415202591 30.223234718335995 77.634086
50.70759282380366 45.25019832810127 116.89393599999998
71.47605196246784 63.78345622222205 8.029969000000007
45.655804786821896 40.742107964213105 132.378897
70.3534308037514 62.781656940292905 4.119625
8.048056976379966 7.181886460327049 106.88345599999998
41.16532732919835 36.734917241289494 102.660285
24.326038657420593 21.707953631524223 54.954093
73.15998011192139 65.28615194271927 30.084307000000013
32.18437241395125 28.72053579544229 72.62884600000001
43.41056605801011 38.73851260275129 113.29642000000001
6.92543940628463 6.180090380794386 47.915474
71.47605196246784 63.78345622222205 16.163484000000015
8.04805697637997 7.1818864603270525 103.28594
42.84925906727299 38.23761616418319 112.04511000000001
43.97187663736834 39.23941224371587 131.90965500000001
28.255205535685928 25.21424471348326 65.120986
70.91474138310961 63.282556581257474 8.342796000000005
72.59866953256318 64.78525230175471 23.202102000000004
43.41056605801011 38.73851260275129 111.888696
72.03735895320494 64.28435266079013 31.335617000000006
11.415916863908176 10.187281103717988 14.755760000000002
73.15998011192139 65.28615194271927 18.82251700000002
36.11354288083768 32.2268300797978 83.57780800000002
24.326038657420597 21.707953631524227 53.389955
42.287948487914775 37.736716523218625 112.983592
7.486749985642844 6.680990021758951 107.50911099999999
72.03735895320494 64.28435266079013 20.543069000000006
71.47605196246782 63.78345622222204 4.9016940000000035
51.26890340316187 45.75109796906584 134.255862
71.47605196246782 63.78345622222204 23.35851600000001
70.3534308037514 62.781656940292905 6.309418000000005
40.04270975910301 35.733121161756834 130.814759
72.03735895320496 64.28435266079015 6.465830999999996
44.533187216726546 39.74031188468042 132.222483
49.02366467435009 43.74750260760402 115.48621200000001
28.816516115044134 25.71514435444782 63.400435
67.54688149558142 60.277161937866545 12.878795000000002
38.92008860038657 34.731321879827696 92.49339200000001
47.339732936275446 42.244803684710334 121.89917599999998
7.4867499856428426 6.68099002175895 63.244021000000004
5.802818247568194 5.178291098865248 59.95933200000001
7.486749985642847 6.680990021758953 87.01891
11.415916863908176 10.187281103717988 13.348036
8.04805697637996 7.181886460327044 106.727042
6.925439406284632 6.180090380794387 55.579748
43.410566058010126 38.7385126027513 113.452833
43.97187663736833 39.239412243715854 112.201523
37.797471030291234 33.72952580029503 89.990772
29.93913368513948 26.71694043398049 67.78002
72.03735895320494 64.28435266079013 20.699482000000003
32.18437241395125 28.72053579544229 75.444293
37.797471030291234 33.72952580029503 89.52153
43.410566058010126 38.7385126027513 124.24538200000002
33.86830415202591 30.223234718335995 79.041809
37.23616045093301 33.22862615933046 89.677944
42.28794848791477 37.736716523218625 98.59352800000002
71.47605196246784 63.78345622222205 10.06334800000001
5.802818247568194 5.178291098865248 63.087607
27.132587965590588 24.212448633950594 64.495331
71.47605196246784 63.78345622222205 2.242659999999998
72.59866953256318 64.78525230175471 21.325136999999998
6.925439406284632 6.180090380794387 61.836297
40.042709759103 35.73312116175682 93.74470100000002
11.977227443266392 10.688180744682555 13.973691
5.802818247568194 5.178291098865248 58.23878100000001
5.802818247568199 5.1782910988652535 52.138645
71.47605196246784 63.78345622222205 18.353276000000008
71.47605196246784 63.78345622222205 11.783899000000014
70.35343080375141 62.78165694029292 1.6170050000000027
7.486749985642842 6.680990021758949 85.298359
7.486749985642844 6.680990021758951 85.454773
44.533187216726546 39.74031188468042 112.51435100000002
40.04270975910301 35.733121161756834 105.006491
67.54688149558142 60.277161937866545 12.565967000000004
49.58497166508724 44.248399046172146 133.630207
6.925439406284622 6.180090380794379 64.338917
10.854606284549957 9.686381462753419 15.694242000000001
36.6748498715748 32.72772651836589 87.800979
40.04270975910301 35.733121161756834 110.950214
41.72663790855656 37.23581688225406 105.319319
24.88734923677881 22.20885327248879 54.328438000000006
46.2171153661801 41.24300760517766 132.691724
6.364128826926405 5.679190739829811 108.916835
32.74568299330947 29.221435436406864 73.410915
42.28794848791478 37.73671652321863 100.47049300000002
32.18437241395125 28.72053579544229 74.818638
10.293295705191742 9.185481821788851 16.00707
70.91474138310961 63.282556581257474 5.8401760000000005
34.99092172212124 31.22503079786866 84.359877
71.47605196246782 63.78345622222204 6.778659000000011
72.03735895320496 64.28435266079015 8.186383000000012
5.802818247568191 5.178291098865246 52.7643
70.35343080375141 62.78165694029292 3.4939700000000147
40.042709759103005 35.73312116175683 110.637386
11.977227443266388 10.688180744682551 14.130105000000002
39.4813991797448 35.23222152079227 91.554909
29.377826694402348 26.216043995412385 67.46719199999998
72.59866953256318 64.78525230175472 20.230241
40.60402033846122 36.234020802721396 92.02415000000002
68.66950265429784 61.278961219795676 12.409554000000009
35.55223230147947 31.725930438833235 83.26498100000002
7.486749985642836 6.6809900217589435 107.03987000000001
8.609367555738181 7.682786101291614 46.351336999999994
73.15998011192139 65.28615194271927 24.140585
8.609367555738187 7.68278610129162 81.544429
36.11354288083768 32.2268300797978 83.42139400000002
69.79212022439317 62.28075729932834 9.906934000000012
6.925439406284632 6.180090380794387 69.187743
5.8028182475682 5.1782910988652535 55.73616100000001
69.79212022439317 62.28075729932834 3.650383999999998
42.849259067272996 38.237616164183194 98.906355
36.11354288083767 32.22683007979779 87.488152
46.77842594553832 41.74390724614223 127.53007100000002
32.184372413951245 28.72053579544228 73.098087
71.47605196246784 63.78345622222205 23.671343
8.048056976379968 7.18188646032705 107.665525
42.849259067272996 38.2376161641832 98.2807
6.925439406284629 6.180090380794384 64.18250399999998
42.849259067272996 38.2376161641832 102.503871
42.287948487914775 37.736716523218625 96.56014900000001
72.59866953256318 64.78525230175472 17.101966
6.364128826926413 5.679190739829818 61.679884
40.04270975910301 35.733121161756834 110.324559
73.72129069127959 65.78705158368383 26.017550000000004
41.165327329198334 36.73491724128949 101.721803
71.47605196246784 63.78345622222205 16.31989700000001
71.47605196246784 63.78345622222205 16.632724999999997
47.33973293627545 42.244803684710334 133.473793
29.93913368513948 26.71694043398049 68.718502
73.7212906912796 65.78705158368385 30.240721000000004
48.46235409499186 43.24660296663944 120.178624
33.30699357266769 29.72233507737143 79.354637
29.37782669440236 26.216043995412395 66.52871000000002
6.92543940628463 6.180090380794386 70.12622599999999
72.03735895320494 64.28435266079013 28.363756000000002
5.8028182475681955 5.17829109886525 60.428574
73.15998011192139 65.28615194271927 10.376175000000002
72.03735895320496 64.28435266079015 21.794378000000002
38.92008860038658 34.731321879827696 90.77284
42.849259067272996 38.237616164183194 99.21918300000002
47.90104351563367 42.745703325674896 121.74276199999998
5.802818247568192 5.178291098865246 65.90305500000001
73.15998011192139 65.28615194271927 29.45865200000002
6.364128826926415 5.679190739829821 33.056168
36.67484987157481 32.727726518365905 88.426634
8.048056976379959 7.181886460327043 81.231602
32.74568299330947 29.221435436406857 75.28787900000002
40.042709759103005 35.73312116175683 91.71132300000001
6.364128826926412 5.679190739829817 51.20016300000001
5.8028182475682 5.1782910988652535 55.26692
41.726637908556555 37.235816882254056 105.944974
41.165327329198355 36.7349172412895 111.57586800000001
39.481399179744784 35.23222152079226 92.649805
70.91474138310961 63.282556581257474 1.7734189999999987
5.802818247568192 5.178291098865246 63.869676000000005
6.364128826926413 5.679190739829818 68.092847
7.486749985642839 6.680990021758946 104.693664
71.47605196246784 63.78345622222205 11.471071000000016
6.36412882692641 5.679190739829815 45.25644
73.15998011192139 65.28615194271927 27.894515000000006
6.36412882692641 5.679190739829815 79.511051
39.481399179744784 35.23222152079226 110.48097200000001
6.364128826926413 5.679190739829818 50.574508
6.9254394062846165 6.180090380794374 106.570629
38.92008860038657 34.73132187982769 91.867737
42.28794848791478 37.73671652321863 100.15766500000001
8.048056976379966 7.181886460327049 53.546369
31.62306542321413 28.21963935687419 73.567328
42.849259067272996 38.2376161641832 95.77808000000002
24.887349236778814 22.208853272488792 54.79767900000001
8.609367555738185 7.682786101291618 46.50775
69.79212022439317 62.28075729932834 12.25314
8.048056976379959 7.181886460327042 104.850077
73.7212906912796 65.78705158368385 25.54830800000001
42.28794848791478 37.73671652321863 96.872976
41.165327329198355 36.7349172412895 101.096148
5.802818247568195 5.178291098865249 77.477672
70.91474138310961 63.282556581257474 8.655623999999998
43.41056605801011 38.738512602751285 100.001251
41.72663790855657 37.23581688225407 103.129526
6.364128826926412 5.679190739829817 56.987471
43.41056605801012 38.73851260275129 97.498631
40.604020338461204 36.23402080272138 94.057529
5.802818247568194 5.178291098865248 49.79243900000001
32.74568299330947 29.221435436406864 77.008431
38.358781609649455 34.2304254412596 90.46001299999999
42.287948487914775 37.736716523218625 104.22442200000002
6.92543940628463 6.180090380794386 45.725682000000006
5.802818247568196 5.178291098865251 58.082367
6.36412882692641 5.679190739829815 110.168145
40.60402033846123 36.2340208027214 113.765661
42.849259067272996 38.2376161641832 124.71462299999999
42.28794848791479 37.73671652321864 96.403735
6.925439406284624 6.18009038079438 74.975052
39.48139917974479 35.23222152079226 91.242082
40.60402033846122 36.234020802721396 110.79379999999999
5.8028182475681955 5.17829109886525 56.361816
33.30699357266768 29.72233507737142 78.10332700000001
73.15998011192139 65.28615194271927 26.799617999999995
72.03735895320496 64.28435266079015 6.622245000000003
34.990921722121236 31.225030797868655 82.639326
42.287948487914775 37.736716523218625 94.996011
28.816516115044138 25.715144354447823 66.841537
7.48674998564285 6.680990021758956 69.344157
73.15998011192139 65.28615194271927 23.82775700000001
72.03735895320496 64.28435266079015 27.42527300000001
41.726637908556555 37.235816882254056 103.75518100000001
6.925439406284624 6.18009038079438 61.992711
7.486749985642848 6.680990021758954 81.857257
11.977227443266392 10.688180744682555 15.068587
36.67484987157481 32.7277265183659 88.113807
40.04270975910299 35.73312116175682 92.80621900000001
6.925439406284624 6.18009038079438 108.447594
10.293295705191742 9.185481821788851 14.286519000000002
30.500444264497695 27.21784007494506 73.72374200000002
9.73198871445462 8.684585383220755 32.586927
71.47605196246784 63.78345622222205 3.024729000000009
6.925439406284626 6.1800903807943826 86.080428
72.03735895320496 64.28435266079015 16.789139000000002
6.364128826926412 5.679190739829817 55.89257500000001
6.364128826926415 5.679190739829821 103.44235400000001
46.2171153661801 41.24300760517766 114.54773
6.364128826926412 5.679190739829817 75.600707
38.92008860038657 34.73132187982769 90.30359900000002
29.93913368513948 26.71694043398049 65.746641
6.364128826926413 5.679190739829818 52.920714000000004
5.802818247568196 5.17829109886525 69.65698499999999
29.377826694402344 26.21604399541238 67.93643300000001
5.802818247568197 5.178291098865252 59.02085000000001
7.486749985642839 6.680990021758946 69.96981200000002
73.15998011192139 65.28615194271927 18.666104000000015
5.802818247568195 5.178291098865249 40.094787
32.74568299330947 29.221435436406864 76.695603
32.184372413951266 28.720535795442302 73.88015600000001
42.849259067272996 38.237616164183194 113.922075
42.849259067272996 38.237616164183194 97.18580400000002
45.655804786821896 40.742107964213105 114.234902
8.048056976379964 7.181886460327046 107.821939
35.55223230147946 31.725930438833224 83.890636
5.802818247568197 5.178291098865252 51.043749000000005
9.170678135096402 8.183685742256186 14.599346000000004
40.042709759103005 35.73312116175683 92.18056400000002
71.47605196246784 63.78345622222205 21.012309999999996
10.293295705191744 9.185481821788853 14.912174000000004
42.28794848791477 37.736716523218625 96.716563
10.854606284549957 9.686381462753419 14.442932000000004
8.048056976379973 7.181886460327054 85.61118699999999
66.9855745048443 59.77626549929845 31.961272
41.72663790855656 37.23581688225406 100.939734
9.73198871445462 8.684585383220753 53.859196
39.48139917974479 35.23222152079226 92.33697800000002
6.36412882692641 5.679190739829815 40.2512
33.306993572667686 29.722335077371426 77.946913
6.3641288269264145 5.679190739829819 85.7676
42.287948487914775 37.736716523218625 98.12428600000001
5.802818247568198 5.178291098865252 57.143885
5.8028182475682 5.1782910988652535 77.32125799999999
6.9254394062846245 6.180090380794381 60.115745999999994
7.48674998564284 6.680990021758947 81.700843
29.377826694402355 26.216043995412388 65.590227
5.802818247568197 5.178291098865252 49.479611000000006
27.693894956327707 24.71334507251869 66.685123
6.92543940628463 6.180090380794386 57.300299
29.93913368513948 26.71694043398049 66.99795100000001
41.16532732919835 36.734917241289494 105.475732
5.8028182475681955 5.17829109886525 50.41809400000001
5.802818247568198 5.178291098865252 52.451473
6.925439406284626 6.1800903807943826 82.170084
5.802818247568198 5.178291098865252 62.931194
37.23616045093303 33.22862615933047 89.834358
31.0617548438559 27.718739715909614 71.69036300000002
8.048056976379971 7.181886460327053 106.101387
41.72663790855657 37.23581688225407 101.565389
5.802818247568193 5.178291098865247 58.864436000000005
5.802818247568194 5.178291098865248 48.228302000000006
7.486749985642848 6.680990021758954 85.924014
41.16532732919835 36.7349172412895 98.749941
11.415916863908173 10.187281103717986 15.225001
6.364128826926417 5.679190739829822 62.149125000000005
37.797471030291234 33.72952580029503 88.739462
5.802818247568199 5.1782910988652535 79.980292
66.42426392548606 59.27536585833387 13.035209000000002
33.30699357266769 29.72233507737143 79.198223
6.364128826926413 5.679190739829818 61.523469999999996
5.802818247568189 5.178291098865245 109.54249000000002
29.939133685139485 26.716940433980497 71.221122
5.802818247568202 5.178291098865255 109.698904
42.849259067272996 38.2376161641832 104.53725
28.255205535685924 25.214244713483257 63.55684899999999
37.23616045093301 33.22862615933045 88.58304800000002
5.802818247568198 5.178291098865252 61.367056
5.802818247568199 5.1782910988652535 79.667464
7.4867499856428426 6.68099002175895 69.813398
9.731988714454621 8.684585383220755 32.743341
5.802818247568198 5.178291098865252 62.618366
8.048056976379966 7.181886460327049 86.23684199999998
5.802818247568196 5.17829109886525 66.372296
6.925439406284627 6.180090380794383 86.549669
5.802818247568196 5.178291098865251 51.669404
38.92008860038658 34.731321879827696 90.929254
9.731988714454614 8.684585383220748 54.17202399999999
6.92543940628463 6.180090380794386 74.192983
28.816516115044134 25.71514435444782 65.27740000000001
6.925439406284622 6.180090380794379 78.416154
41.16532732919835 36.7349172412895 94.683184
5.802818247568196 5.178291098865251 58.551609
34.42961114276303 30.724131156904097 82.952153
41.165327329198355 36.7349172412895 94.52677000000001
6.925439406284626 6.1800903807943826 45.882095
42.287948487914775 37.736716523218625 103.911595
36.6748498715748 32.72772651836589 88.27022
5.802818247568194 5.178291098865248 52.607886
8.04805697637997 7.181886460327051 84.672704
5.8028182475681955 5.17829109886525 47.759060000000005
5.80281824756819 5.178291098865245 64.02608999999998
10.854606284549957 9.686381462753419 13.817277000000002
31.623065423214122 28.219639356874186 72.159605
5.802818247568196 5.17829109886525 66.215882
6.364128826926415 5.679190739829821 48.384715
5.802818247568194 5.178291098865248 109.073249
6.925439406284629 6.180090380794384 69.500571
28.816516115044138 25.715144354447823 64.651745
5.802818247568199 5.1782910988652535 56.048989000000006
37.23616045093302 33.22862615933047 90.616427
9.73198871445462 8.684585383220755 32.117686
41.16532732919835 36.7349172412895 102.816699
6.36412882692641 5.679190739829815 60.27216
7.486749985642842 6.680990021758949 107.196284
7.486749985642842 6.680990021758949 88.895875
7.486749985642835 6.680990021758943 106.257801
5.802818247568197 5.178291098865252 50.73092100000001
28.255205535685928 25.21424471348326 67.623606
34.42961114276303 30.724131156904093 83.10856700000001
5.802818247568188 5.178291098865244 76.382776
5.802818247568196 5.178291098865251 56.205403
42.28794848791477 37.736716523218625 104.068009
41.16532732919835 36.7349172412895 105.63214600000002
41.72663790855655 37.23581688225405 102.03463000000002
5.802818247568191 5.178291098865246 70.595467
6.36412882692641 5.679190739829815 62.461952
5.802818247568196 5.17829109886525 57.45671200000001
5.802818247568194 5.178291098865248 62.30553900000001
7.4867499856428426 6.68099002175895 80.44953300000002
7.486749985642845 6.680990021758952 46.038509
5.802818247568194 5.178291098865248 82.326498
6.364128826926412 5.679190739829817 40.407614
8.609367555738187 7.68278610129162 54.641265
7.486749985642848 6.680990021758954 107.352697
5.802818247568191 5.178291098865246 53.233541
6.925439406284627 6.180090380794383 74.349397
6.3641288269264145 5.679190739829819 59.802919
6.3641288269264065 5.679190739829812 68.249261
6.925439406284632 6.180090380794387 108.13476599999998
5.802818247568194 5.178291098865248 51.51299
7.486749985642847 6.680990021758953 82.013671
5.802818247568199 5.1782910988652535 86.706083
5.802818247568197 5.178291098865252 50.26168
6.3641288269264145 5.679190739829819 79.823878
6.925439406284632 6.180090380794387 71.84677699999999
6.36412882692641 5.679190739829815 82.482912
5.802818247568197 5.178291098865252 106.41421499999998
6.925439406284632 6.180090380794387 107.97835200000002
7.4867499856428426 6.68099002175895 46.66416400000001
5.802818247568199 5.178291098865253 108.760421
5.802818247568195 5.178291098865249 50.10526599999999
31.623065423214122 28.219639356874186 72.00319100000002
7.486749985642848 6.680990021758954 55.423334
5.802818247568202 5.178291098865255 108.604007
5.802818247568196 5.17829109886525 56.831058
5.802818247568197 5.178291098865252 70.28264
5.802818247568198 5.178291098865252 72.31601799999999
6.9254394062846245 6.180090380794381 76.539189
5.802818247568198 5.178291098865252 45.412854
6.364128826926413 5.679190739829818 50.887335
5.802818247568199 5.1782910988652535 84.51629
5.802818247568194 5.178291098865248 39.938373
6.364128826926415 5.679190739829821 63.71326199999999
5.8028182475681955 5.17829109886525 59.646505
5.802818247568199 5.178291098865253 80.605947
5.802818247568194 5.178291098865248 82.795739
5.802818247568196 5.178291098865251 68.405675
5.8028182475681875 5.178291098865243 87.331738
5.802818247568192 5.178291098865246 66.059469
44.80462222473522 -32.19602686890413 101.40897500000001
52.13582153071545 -37.464132660594586 116.42469500000001
52.746755782683714 -37.90314217824755 133.31737900000002
78.40595140067478 -56.34151104580671 13.660863999999998
79.62781990461129 -57.219530081112616 29.302238000000006
43.5827576266783 -31.3180106403132 96.09090800000001
48.470223830665134 -34.83008116810685 127.999312
46.02649072867171 -33.07404590421002 113.14000600000001
77.18408680261787 -55.46349481721579 15.850656000000004
80.23875415657955 -57.65853959876557 24.609826000000005
10.592362702706993 -7.611535981063562 59.802919
50.91395693265856 -36.58611643200368 126.748002
48.47022383066514 -34.83008116810685 127.84289799999998
7.537695348745321 -5.416491199513784 78.25974100000002
79.62781990461127 -57.21953008111261 30.084307000000013
75.3512879525927 -54.14646907097191 8.499210000000009
8.148629600713578 -5.855500717166738 80.918774
31.975026368679472 -22.976843838482026 72.941673
77.18408680261787 -55.46349481721579 4.432453000000017
50.91395693265855 -36.58611643200367 122.52483100000002
49.69208842872205 -35.70809739669778 123.306899
49.081154176753785 -35.26908787904481 123.93255400000001
47.24835532672862 -33.95206213280094 113.29642000000001
79.01688565264304 -56.78052056345967 28.207342000000004
41.13902452468489 -29.56197537641638 91.554909
44.80462222473521 -32.19602686890412 101.252561
79.62781990461129 -57.219530081112616 18.19686200000001
49.69208842872205 -35.708097396697774 124.871037
77.79502105458613 -55.90250433486875 29.615066000000013
51.52488727874723 -37.02512314294166 132.848138
78.40595140067477 -56.341511045806705 21.481551000000017
78.40595140067477 -56.341511045806705 19.60458600000001
77.79502105458612 -55.902504334868745 23.514930000000014
50.30302268069028 -36.147106914350715 124.08896800000001
79.01688565264304 -56.78052056345967 30.397135000000006
8.759559946802236 -6.294507428104709 54.01561
46.02649072867172 -33.074045904210024 112.04511
50.30302268069029 -36.147106914350715 120.960693
78.40595140067478 -56.34151104580671 24.92265300000001
51.524887278747215 -37.02512314294165 126.278761
77.18408680261787 -55.46349481721579 3.3375569999999994
77.79502105458613 -55.90250433486875 31.804858000000007
34.41875947067289 -24.73287910237885 78.572568
77.18408680261787 -55.46349481721579 16.319897000000008
78.40595140067478 -56.34151104580671 4.7452799999999975
52.7467557826837 -37.903142178247535 133.78662000000003
47.24835532672861 -33.95206213280093 128.468553
50.913956932658564 -36.586116432003685 121.117107
50.30302268069028 -36.147106914350715 125.027451
78.40595140067478 -56.34151104580671 19.76100000000001
42.97182337471004 -30.879001122660245 129.09420800000004
42.97182337471004 -30.879001122660245 130.65834500000003
77.18408680261786 -55.46349481721578 13.035209000000004
12.42516155273216 -8.928561727307438 11.00183
22.811024306794476 -16.391709493832703 51.669404
79.62781990461127 -57.21953008111261 28.520170000000007
40.52809027271664 -29.12296585876343 89.36511699999998
8.148629600713585 -5.855500717166744 93.43187400000001
75.3512879525927 -54.14646907097191 6.935072999999999
45.41555647670347 -32.635036386557076 102.19104400000002
77.79502105458613 -55.90250433486875 5.683763000000001
48.47022383066514 -34.83008116810685 132.066069
46.026490728671725 -33.07404590421003 112.35793700000002
7.537695348745328 -5.416491199513789 49.636025
79.01688565264304 -56.780520563459675 29.92789300000002
77.79502105458613 -55.90250433486875 19.917413999999997
79.01688565264304 -56.78052056345967 17.72762100000001
77.79502105458613 -55.90250433486875 30.70996200000001
8.75955994680223 -6.294507428104706 57.925954000000004
77.79502105458612 -55.902504334868745 7.0914860000000015
79.01688565264304 -56.78052056345967 21.95079200000001
77.18408680261786 -55.46349481721578 16.632725000000015
43.58275762667831 -31.318010640313204 102.81669900000001
42.36088912274181 -30.439991605007304 96.247321
41.139024524684885 -29.561975376416374 130.03269
49.081154176753785 -35.26908787904481 128.15572600000002
44.80462222473521 -32.19602686890412 128.624967
79.01688565264304 -56.78052056345967 18.040449
44.193691878646554 -31.757020157966153 100.314079
39.30622567465973 -28.244949630172506 129.563449
76.57315255064962 -55.02448529956285 7.7171410000000105
50.303022680690304 -36.14710691435072 125.496692
49.081154176753785 -35.26908787904481 123.463313
77.79502105458612 -55.902504334868745 20.073827
50.91395693265855 -36.58611643200367 133.004552
50.3030226806903 -36.14710691435072 115.95545300000002
47.24835532672863 -33.95206213280095 122.05558900000001
79.62781990461127 -57.21953008111261 23.98417100000001
79.01688565264304 -56.780520563459675 28.832997000000006
79.01688565264304 -56.780520563459675 22.732861000000014
77.79502105458613 -55.90250433486875 13.504450000000004
8.148629600713573 -5.855500717166735 77.164844
77.18408680261787 -55.46349481721579 3.806798000000003
79.01688565264304 -56.78052056345967 21.63796500000001
77.18408680261787 -55.46349481721579 4.588866000000011
7.5376953487453235 -5.416491199513786 44.474372
46.02649072867171 -33.07404590421002 131.753242
51.52488727874721 -37.025123142941645 118.30166
42.97182337471004 -30.879001122660238 130.50193200000004
41.74995877665314 -30.000984894069322 99.37559600000002
78.4059514006748 -56.341511045806726 23.045687999999995
47.24835532672863 -33.95206213280095 114.86055699999999
52.13582153071546 -37.46413266059459 118.927315
47.24835532672863 -33.95206213280095 114.07848800000001
45.41555647670346 -32.63503638655707 112.201523
28.309424762749558 -20.342789539279302 60.42857399999999
72.29662059863104 -51.95142428942214 9.594106000000009
33.80782521870465 -24.293869584725908 77.946913
48.47022383066515 -34.83008116810686 122.36841700000001
77.79502105458612 -55.902504334868745 2.868314999999998
44.193691878646554 -31.75702015796615 95.308839
45.415556476703465 -32.635036386557076 112.82717800000002
6.926761096777068 -4.977481681860833 87.175324
43.582757626678294 -31.31801064031319 130.345518
6.926761096777075 -4.977481681860838 59.177264
79.01688565264304 -56.78052056345967 27.738101000000015
76.57315255064962 -55.02448529956285 6.1530039999999975
44.193691878646554 -31.757020157966153 104.06800899999999
50.30302268069029 -36.147106914350715 115.79904
50.913956932658536 -36.586116432003664 124.401796
44.19369187864656 -31.757020157966156 131.284
39.917156020748386 -28.683956341110477 129.250622
9.370494198770492 -6.733516945757663 74.662225
79.01688565264304 -56.780520563459675 26.643205000000012
45.41555647670348 -32.63503638655708 99.53201000000001
76.57315255064962 -55.02448529956285 7.560728000000013
53.9686203807406 -38.78115840683845 133.943034
78.40595140067477 -56.341511045806705 15.068587
42.36088912274179 -30.439991605007293 92.64980500000001
49.08115417675379 -35.26908787904482 132.53531
8.148629600713573 -5.855500717166735 94.21394300000001
75.35128795259268 -54.146469070971904 8.968451000000004
49.08115417675379 -35.26908787904482 127.217243
40.52809027271663 -29.122965858763422 90.77284000000002
50.91395693265855 -36.58611643200367 127.37365700000001
11.814227300763905 -8.489552209654486 11.158244000000002
50.303022680690304 -36.14710691435073 125.965933
50.30302268069029 -36.147106914350715 117.832418
50.91395693265855 -36.58611643200367 126.591588
44.804622224735205 -32.19602686890411 128.781381
50.91395693265855 -36.58611643200367 120.804279
78.40595140067478 -56.34151104580671 15.381415000000011
78.40595140067477 -56.341511045806705 17.414793999999997
78.40595140067478 -56.34151104580671 31.64844399999999
79.01688565264304 -56.780520563459675 22.576447
73.51848519668795 -52.829440518013065 32.274099
78.40595140067478 -56.34151104580671 19.448172
50.913956932658536 -36.586116432003664 126.12234700000002
77.18408680261787 -55.46349481721579 7.247899999999998
6.926761096777068 -4.977481681860833 70.90829499999998
77.18408680261787 -55.46349481721579 2.3990739999999975
8.148629600713578 -5.855500717166738 66.059469
50.91395693265855 -36.58611643200367 126.90441600000003
51.524887278747215 -37.02512314294165 117.36317700000001
50.303022680690304 -36.14710691435072 115.486212
8.148629600713585 -5.855500717166743 41.189683
44.80462222473521 -32.19602686890412 130.971173
46.63742498063998 -33.51305542186298 128.312139
