ply
format ascii 1.0
element vertex 917
property float32 x
property float32 y
property float32 z
element face 0
property list uint8 int32 vertex_indices
end_header
-13.275221539061887 10.304309149780952 123.93255400000001
-13.27522153906189 10.304309149780954 133.004552
-12.680935604554927 9.84302072800152 132.84813800000003
-13.27522153906189 10.304309149780954 118.927315
-11.492356136608253 8.920437986104002 114.078488
-12.68093560455492 9.843020728001513 126.748002
-12.68093560455492 9.843020728001513 125.18386400000001
-13.27522153906188 10.304309149780945 117.67600500000002
-11.492356136608239 8.920437986103991 122.055589
-13.275221539061876 10.304309149780943 124.55820900000002
-12.08664587058159 9.38172935705276 122.681244
-12.086645870581595 9.381729357052764 128.155726
-12.68093560455492 9.843020728001513 123.77614100000001
-12.08664587058159 9.38172935705276 112.35793700000002
-13.86951127303523 10.765600520729713 111.575868
-12.680935604554922 9.843020728001514 134.099448
-12.680935604554916 9.84302072800151 126.59158800000002
-13.275221539061882 10.304309149780947 134.412275
-13.86951127303523 10.765600520729713 111.263041
-13.27522153906188 10.304309149780945 130.501932
-12.086645870581574 9.381729357052748 132.53531
-12.086645870581581 9.381729357052754 131.12758699999998
-12.086645870581581 9.381729357052754 114.704143
-6.7380458637542935 5.230112916852572 110.168145
-12.68093560455493 9.843020728001521 128.46855300000004
-13.27522153906189 10.304309149780954 133.78662000000003
-13.275221539061896 10.30430914978096 113.140006
-12.680935604554932 9.843020728001523 133.16096499999998
-13.869511273035215 10.765600520729702 130.189104
-13.275221539061876 10.304309149780943 118.770901
-12.08664587058158 9.381729357052752 128.312139
-13.86951127303522 10.765600520729707 118.61448700000001
-13.275221539061885 10.30430914978095 126.904416
-12.680935604554916 9.84302072800151 121.742762
-13.869511273035226 10.765600520729711 117.832418
-12.68093560455493 9.843020728001521 113.922075
-12.68093560455492 9.843020728001513 124.401796
-12.08664587058158 9.381729357052752 133.943034
-13.27522153906189 10.304309149780954 132.37889700000002
-12.680935604554932 9.843020728001523 126.43517400000002
-11.492356136608251 8.920437986104 128.78138100000004
-12.086645870581583 9.381729357052755 130.345518
-11.492356136608251 8.920437986104 123.61972700000001
-12.680935604554922 9.843020728001514 128.937794
-13.275221539061887 10.304309149780952 122.368417
-13.275221539061896 10.30430914978096 122.83765800000002
-13.27522153906189 10.304309149780954 127.06082899999998
-14.463801007008561 11.226891891678468 121.27352099999999
-12.680935604554925 9.843020728001516 111.10662700000002
-13.27522153906188 10.304309149780945 130.971173
-12.680935604554916 9.84302072800151 119.083728
-12.680935604554916 9.84302072800151 127.84289799999999
-12.680935604554927 9.84302072800152 115.329798
-11.49235613660824 8.920437986103993 114.54773000000002
-7.332335597727627 5.691404287801328 110.324559
-12.680935604554916 9.84302072800151 121.42993400000002
-11.492356136608253 8.920437986104002 130.814759
-13.869511273035235 10.765600520729718 114.391316
-14.463801007008565 11.22689189167847 121.11710700000002
-12.680935604554916 9.84302072800151 124.245382
-13.27522153906188 10.304309149780945 125.027451
-12.086645870581583 9.381729357052755 126.12234700000002
-12.680935604554932 9.843020728001523 123.463313
-13.869511273035222 10.76560052072971 112.670765
-11.49235613660825 8.920437986103998 115.173385
-13.275221539061882 10.304309149780947 126.27876100000002
-11.492356136608239 8.920437986103991 113.765661
-14.463801007008573 11.226891891678477 120.80427899999998
-13.869511273035226 10.765600520729711 115.48621200000001
-13.275221539061887 10.304309149780952 117.98883200000002
-13.27522153906188 10.304309149780945 117.20676300000001
-13.275221539061892 10.304309149780956 112.20152300000001
-13.869511273035217 10.765600520729704 112.51435100000002
-13.869511273035215 10.765600520729702 120.49145200000001
-13.27522153906188 10.304309149780945 115.01697100000001
-13.86951127303523 10.765600520729713 122.99407199999999
-12.680935604554916 9.84302072800151 133.473793
-12.086645870581593 9.381729357052762 131.440414
-13.275221539061882 10.304309149780947 127.37365699999998
-12.680935604554913 9.843020728001507 128.624967
-10.30378046812795 7.997858193375807 121.89917599999998
-12.68093560455493 9.843020728001521 113.60924700000001
-13.27522153906189 10.304309149780954 133.63020700000004
-13.275221539061876 10.304309149780943 124.87103700000002
-12.680935604554916 9.84302072800151 111.888696
-12.68093560455493 9.843020728001521 116.581108
-13.275221539061882 10.304309149780947 111.41945500000001
-13.869511273035226 10.765600520729711 120.647866
-6.14375612978095 4.768821545903809 110.011731
-13.275221539061892 10.304309149780956 129.40703500000004
-12.680935604554922 9.843020728001514 119.55297
-13.869511273035231 10.765600520729716 113.29642
-13.27522153906189 10.304309149780954 116.268281
-13.275221539061882 10.304309149780947 120.335038
-12.086645870581583 9.381729357052755 125.340278
-13.27522153906188 10.304309149780945 116.11186700000002
-13.27522153906188 10.304309149780945 123.150486
-13.869511273035217 10.765600520729704 111.73228200000001
-13.27522153906188 10.304309149780945 116.424695
-12.08664587058159 9.381729357052759 118.30166
-13.869511273035222 10.76560052072971 129.250622
-13.275221539061896 10.30430914978096 121.586348
-14.463801007008565 11.22689189167847 119.70938300000002
-12.08664587058159 9.381729357052759 129.563449
-10.898066402634907 8.459146615155236 133.317379
-13.27522153906189 10.304309149780954 129.876277
-15.058086941515525 11.688180313457904 120.960693
-13.27522153906189 10.304309149780954 127.686484
-12.086645870581583 9.381729357052755 118.145246
-13.275221539061887 10.304309149780952 131.909655
-11.492356136608251 8.920437986104 118.458073
-12.68093560455492 9.843020728001513 129.719863
-13.27522153906189 10.304309149780954 124.714623
-13.27522153906189 10.304309149780954 113.45283300000001
-9.115201000181266 7.075275451478281 110.637386
-12.086645870581588 9.381729357052759 114.860557
-12.680935604554936 9.843020728001525 122.212003
-8.520911266207925 6.613984080529519 110.48097200000001
-11.492356136608256 8.920437986104004 117.363177
-12.680935604554936 9.843020728001525 132.22248300000004
-12.680935604554916 9.84302072800151 125.965933
-10.30378046812795 7.997858193375807 110.95021400000002
-10.898066402634903 8.459146615155232 132.066069
-12.680935604554916 9.84302072800151 112.04511
-12.680935604554922 9.843020728001514 131.753242
-9.709490734154606 7.536566822427043 119.865797
-12.680935604554916 9.84302072800151 117.05035
-13.27522153906189 10.304309149780954 134.255862
7.172311522291442 15.197639336181037 130.971173
6.851231844407499 14.51729337972175 122.994072
7.172311522291443 15.197639336181041 115.955453
7.1723115222914515 15.19763933618106 111.88869600000001
3.961500374072553 8.394149323852323 109.54248999999999
6.851231844407497 14.517293379721746 129.094208
6.8512318444075015 14.517293379721755 128.46855300000004
7.493393252943882 15.877989642316882 122.52483099999999
6.530150113755061 13.836943073585912 116.893936
6.530150113755058 13.836943073585905 131.596828
6.5301501137550595 13.83694307358591 130.03268999999997
7.172311522291444 15.197639336181043 125.49669200000001
6.851231844407505 14.517293379721762 113.765661
6.851231844407497 14.517293379721746 112.51435100000002
6.53015011375506 13.836943073585912 115.32979800000001
7.493393252943879 15.877989642316875 110.95021400000002
6.530150113755065 13.836943073585921 121.89917599999998
6.8512318444075015 14.517293379721755 110.480972
6.851231844407505 14.517293379721762 133.63020700000004
7.172311522291444 15.197639336181043 119.240142
6.851231844407494 14.517293379721739 134.255862
7.172311522291443 15.197639336181041 112.983592
7.172311522291443 15.197639336181041 126.748002
6.851231844407505 14.517293379721762 110.7938
6.8512318444075 14.517293379721751 132.378897
6.851231844407503 14.517293379721758 111.73228200000001
6.530150113755066 13.836943073585923 127.530071
7.172311522291442 15.197639336181037 131.28400000000002
7.8144749835963205 16.55833994845272 120.96069299999999
6.209068383102628 13.156592767450086 110.32455900000001
6.851231844407503 14.517293379721758 116.73752200000001
6.209068383102625 13.15659276745008 113.922075
6.8512318444075 14.517293379721751 110.637386
6.53015011375506 13.836943073585912 120.178624
6.530150113755063 13.836943073585916 112.670765
6.530150113755057 13.836943073585903 127.999312
6.8512318444075 14.517293379721751 132.84813800000003
6.8512318444075 14.517293379721751 118.92731500000001
6.530150113755063 13.836943073585916 114.078488
6.530150113755059 13.836943073585907 123.463313
7.172311522291443 15.197639336181041 125.653106
6.209068383102621 13.156592767450071 122.055589
7.17231152229144 15.197639336181034 124.55820900000002
6.209068383102626 13.156592767450082 124.714623
6.530150113755059 13.836943073585907 129.876277
6.530150113755059 13.836943073585907 126.27876100000002
7.172311522291449 15.197639336181053 128.62496700000003
7.172311522291451 15.197639336181057 122.68124400000002
6.209068383102621 13.156592767450071 133.473793
6.851231844407497 14.517293379721746 115.48621200000001
6.5301501137550595 13.836943073585909 131.12758699999998
7.172311522291442 15.197639336181037 115.01697100000001
6.8512318444075015 14.517293379721755 112.357937
7.172311522291442 15.197639336181037 116.11186700000002
6.851231844407497 14.517293379721746 134.099448
7.172311522291449 15.197639336181053 111.26304100000002
6.8512318444075015 14.517293379721755 122.837658
7.172311522291442 15.197639336181037 130.501932
6.530150113755055 13.8369430735859 132.53531
7.172311522291443 15.197639336181041 120.335038
5.245825243913801 11.115546198719104 110.168145
7.172311522291446 15.197639336181046 122.368417
6.209068383102625 13.15659276745008 127.686484
6.851231844407497 14.517293379721746 119.55297
7.172311522291451 15.197639336181057 113.140006
6.851231844407499 14.51729337972175 115.79903999999999
6.530150113755068 13.836943073585928 133.160965
6.530150113755067 13.836943073585925 132.691724
7.493393252943877 15.877989642316868 130.189104
7.172311522291447 15.19763933618105 128.31213900000003
6.8512318444075015 14.517293379721755 114.234902
4.603661782608932 9.754845586447445 109.698904
6.530150113755058 13.836943073585905 123.306899
7.172311522291446 15.197639336181046 122.212003
6.851231844407495 14.517293379721742 124.401796
6.530150113755059 13.836943073585907 133.943034
6.851231844407499 14.51729337972175 111.10662700000002
6.530150113755062 13.836943073585914 126.435174
6.209068383102627 13.156592767450084 128.78138100000004
6.851231844407503 14.517293379721758 133.317379
6.851231844407495 14.517293379721742 123.77614100000001
7.493393252943887 15.87798964231689 130.34551800000003
6.530150113755065 13.83694307358592 116.268281
7.172311522291443 15.197639336181041 131.440414
7.172311522291442 15.197639336181037 125.183864
6.530150113755055 13.8369430735859 125.80951900000001
6.530150113755062 13.836943073585914 117.05035000000001
6.851231844407494 14.517293379721739 112.04511
6.851231844407497 14.517293379721746 114.54773000000002
6.8512318444075 14.517293379721751 123.15048600000001
6.530150113755063 13.836943073585916 126.90441599999998
6.530150113755065 13.83694307358592 113.609247
7.172311522291447 15.19763933618105 121.42993400000002
6.8512318444075015 14.517293379721755 120.02221099999998
6.530150113755065 13.83694307358592 115.642626
6.209068383102628 13.156592767450086 118.614487
6.851231844407494 14.517293379721739 124.245382
6.209068383102623 13.156592767450073 121.742762
7.172311522291451 15.197639336181057 129.563449
6.851231844407494 14.517293379721739 126.59158800000002
5.887986652450193 12.476242461314254 123.619727
6.530150113755066 13.836943073585923 128.937794
7.172311522291442 15.197639336181037 116.424695
6.8512318444075015 14.517293379721755 112.827178
6.851231844407499 14.51729337972175 115.173385
6.851231844407503 14.517293379721758 127.217243
7.172311522291451 15.197639336181057 125.34027800000001
7.172311522291446 15.197639336181046 117.98883200000002
6.530150113755061 13.836943073585912 117.20676299999998
6.851231844407494 14.517293379721739 112.201523
6.851231844407494 14.517293379721739 130.814759
7.172311522291446 15.197639336181046 120.491452
4.603661782608936 9.754845586447454 109.855317
6.530150113755067 13.836943073585925 128.155726
7.172311522291451 15.197639336181057 127.842898
5.566906974566239 11.795896504854941 119.709383
7.172311522291443 15.197639336181041 119.865797
7.172311522291444 15.197639336181043 121.273521
6.530150113755064 13.836943073585918 119.396556
6.8512318444075 14.517293379721751 124.871037
6.530150113755057 13.836943073585903 118.770901
6.8512318444075015 14.517293379721755 116.581108
6.851231844407503 14.517293379721758 127.37365700000001
7.172311522291444 15.197639336181043 111.57586800000001
7.172311522291449 15.197639336181053 130.658345
6.209068383102627 13.156592767450084 114.860557
5.245825243913808 11.11554619871912 110.011731
6.851231844407495 14.517293379721742 117.83241800000002
6.530150113755067 13.836943073585925 113.29642
6.20906838310262 13.15659276745007 133.00455200000002
7.172311522291444 15.197639336181043 121.117107
6.530150113755059 13.836943073585907 132.22248300000004
6.851231844407503 14.517293379721758 118.30166
6.209068383102624 13.156592767450077 133.78662
7.172311522291443 15.197639336181041 134.412275
6.8512318444075 14.517293379721751 129.407035
6.5301501137550595 13.83694307358591 129.250622
6.530150113755059 13.836943073585907 125.96593300000002
7.172311522291442 15.197639336181037 125.027451
6.53015011375506 13.836943073585912 117.676005
6.851231844407494 14.517293379721739 127.06082899999998
7.172311522291447 15.19763933618105 118.145246
6.530150113755063 13.836943073585916 124.088968
6.20906838310263 13.156592767450089 123.932554
6.209068383102621 13.156592767450071 120.64786600000001
6.530150113755063 13.836943073585916 131.909655
6.209068383102629 13.156592767450087 114.704143
6.8512318444075015 14.517293379721755 120.804279
7.172311522291442 15.197639336181037 118.458073
6.209068383102626 13.156592767450082 129.719863
6.530150113755062 13.836943073585914 113.45283300000001
6.851231844407494 14.517293379721739 114.391316
6.851231844407495 14.517293379721742 111.419455
6.53015011375506 13.836943073585912 126.12234700000002
6.851231844407494 14.517293379721739 119.083728
6.530150113755062 13.836943073585914 117.363177
6.851231844407503 14.517293379721758 132.06606899999997
6.209068383102629 13.156592767450087 131.75324199999997
7.172311522291447 15.19763933618105 117.51959100000002
7.172311522291451 15.197639336181057 121.586348
14.925545945469723 -3.366293564070763 130.971173
14.925545945469738 -3.3662935640707663 109.386076
15.659421896193955 -3.5318112542628013 117.83241800000002
15.65942189619396 -3.531811254262803 122.994072
14.92554594546975 -3.366293564070769 111.888696
14.925545945469745 -3.3662935640707676 133.00455200000002
15.65942189619397 -3.5318112542628053 118.614487
15.659421896193955 -3.5318112542628013 130.03269
14.92554594546975 -3.366293564070769 133.630207
15.65942189619397 -3.5318112542628053 123.463313
14.925545945469732 -3.366293564070765 113.765661
14.925545945469736 -3.366293564070766 118.145246
14.925545945469734 -3.3662935640707654 115.955453
14.925545945469743 -3.366293564070767 119.396556
15.659421896193964 -3.5318112542628035 115.016971
15.659421896193951 -3.5318112542628004 134.255862
14.925545945469752 -3.3662935640707694 126.748002
14.191669994745503 -3.2007758738787273 125.496692
14.92554594546975 -3.366293564070769 128.781381
14.925545945469745 -3.3662935640707676 111.41945500000001
15.659421896193958 -3.531811254262802 110.950214
15.65942189619397 -3.5318112542628053 111.73228200000001
14.925545945469741 -3.366293564070767 131.284
14.925545945469741 -3.366293564070767 110.32455900000001
9.054547723438938 -2.042154158939533 108.604007
15.659421896193955 -3.5318112542628013 117.676005
13.457794044021284 -3.035258183686692 117.20676299999998
14.925545945469748 -3.3662935640707685 110.7938
15.659421896193964 -3.5318112542628035 110.637386
14.925545945469736 -3.366293564070766 120.178624
14.925545945469747 -3.366293564070768 132.848138
14.92554594546975 -3.366293564070769 128.468553
15.659421896193955 -3.5318112542628013 130.501932
13.457794044021295 -3.035258183686694 109.229662
15.65942189619397 -3.5318112542628053 133.16096499999998
14.92554594546974 -3.3662935640707667 119.083728
15.659421896193964 -3.5318112542628035 125.34027800000001
14.925545945469729 -3.366293564070764 124.71462300000002
13.457794044021288 -3.0352581836866928 128.624967
14.925545945469729 -3.366293564070764 123.306899
14.925545945469748 -3.3662935640707685 133.473793
15.659421896193958 -3.531811254262802 115.48621200000001
14.191669994745519 -3.200775873878731 131.127587
15.65942189619396 -3.531811254262803 129.876277
13.4577940440213 -3.0352581836866954 112.201523
15.659421896193964 -3.5318112542628035 116.11186700000002
16.393293155036684 -3.6973278862523085 115.17338500000001
16.3932931550367 -3.6973278862523125 114.07848800000001
14.925545945469747 -3.366293564070768 134.099448
14.925545945469743 -3.366293564070767 119.240142
14.191669994745519 -3.200775873878731 134.41227500000002
15.659421896193955 -3.5318112542628013 126.904416
13.457794044021282 -3.035258183686691 128.155726
15.659421896193958 -3.531811254262802 125.027451
16.39329315503669 -3.6973278862523102 112.983592
15.659421896193967 -3.5318112542628044 122.837658
15.65942189619396 -3.531811254262803 115.64262600000002
16.393293155036694 -3.697327886252311 129.719863
9.054547723438937 -2.0421541589395327 108.76042099999998
15.659421896193964 -3.5318112542628035 120.335038
11.990046834454322 -2.7042238615051457 109.07324899999999
16.393293155036698 -3.6973278862523116 117.05035
15.659421896193967 -3.5318112542628044 110.480972
16.393293155036694 -3.697327886252311 119.55297
13.457794044021293 -3.0352581836866936 132.691724
14.92554594546973 -3.3662935640707645 118.92731500000001
16.393293155036698 -3.6973278862523116 109.698904
15.659421896193974 -3.531811254262806 131.440414
14.19166999474552 -3.2007758738787313 133.943034
16.393293155036687 -3.6973278862523093 125.183864
14.92554594546974 -3.3662935640707667 126.435174
13.457794044021293 -3.0352581836866936 114.704143
14.191669994745524 -3.2007758738787317 123.15048600000001
14.925545945469734 -3.3662935640707654 133.317379
15.659421896193951 -3.5318112542628004 130.345518
16.393293155036705 -3.6973278862523133 114.860557
15.659421896193964 -3.5318112542628035 116.268281
14.925545945469745 -3.3662935640707676 112.35793700000002
14.925545945469745 -3.3662935640707676 113.609247
14.92554594546973 -3.3662935640707645 128.312139
14.191669994745524 -3.2007758738787317 125.809519
14.925545945469734 -3.3662935640707654 113.14000600000001
14.191669994745522 -3.2007758738787317 111.263041
14.191669994745505 -3.2007758738787278 117.51959100000002
15.659421896193951 -3.5318112542628004 127.84289799999999
18.59491631532788 -4.193879898625893 121.11710700000002
14.925545945469732 -3.366293564070765 122.368417
14.925545945469736 -3.366293564070766 109.54249
14.92554594546975 -3.366293564070769 122.52483100000002
14.925545945469729 -3.366293564070764 131.596828
15.65942189619397 -3.5318112542628053 116.73752200000001
12.723922785178544 -2.8697415516971825 124.401796
16.39329315503671 -3.6973278862523142 129.563449
15.659421896193967 -3.5318112542628044 114.234902
17.86104505648514 -4.028363266636384 121.27352099999999
15.659421896193958 -3.531811254262802 130.189104
14.191669994745503 -3.2007758738787273 128.937794
16.393293155036694 -3.697327886252311 115.329798
14.191669994745503 -3.2007758738787273 125.965933
15.65942189619396 -3.531811254262803 115.79903999999999
15.65942189619396 -3.531811254262803 111.10662700000002
9.05454772343893 -2.042154158939531 108.447594
12.723922785178555 -2.8697415516971847 117.36317700000001
14.92554594546974 -3.3662935640707667 113.45283300000001
14.925545945469743 -3.366293564070767 127.373657
15.659421896193958 -3.531811254262802 119.709383
15.65942189619396 -3.531811254262803 119.86579700000001
14.925545945469747 -3.366293564070768 131.753242
15.659421896193967 -3.5318112542628044 118.458073
14.925545945469752 -3.3662935640707694 114.391316
17.12716910576091 -3.8628455764443457 121.429934
14.19166999474551 -3.2007758738787286 124.87103700000002
15.65942189619397 -3.5318112542628053 109.855317
14.925545945469738 -3.3662935640707663 130.658345
14.19166999474551 -3.2007758738787286 129.407035
15.65942189619397 -3.5318112542628053 122.681244
14.191669994745517 -3.2007758738787304 113.922075
15.659421896193951 -3.5318112542628004 127.53007099999999
14.925545945469743 -3.366293564070767 118.30166
14.191669994745519 -3.200775873878731 118.770901
14.925545945469734 -3.3662935640707654 129.250622
12.723922785178548 -2.8697415516971834 125.653106
14.925545945469741 -3.366293564070767 112.514351
14.925545945469745 -3.3662935640707676 112.82717800000002
10.5222949330059 -2.3731884811210784 108.916835
15.659421896193955 -3.5318112542628013 121.58634800000002
14.92554594546975 -3.366293564070769 110.01173100000001
16.39329315503669 -3.6973278862523102 121.742762
14.925545945469736 -3.366293564070766 116.581108
15.659421896193951 -3.5318112542628004 127.06082899999998
13.457794044021286 -3.0352581836866923 132.066069
14.191669994745503 -3.2007758738787273 121.899176
14.191669994745514 -3.2007758738787295 124.558209
14.92554594546974 -3.3662935640707667 116.42469500000001
14.925545945469741 -3.366293564070767 124.088968
15.659421896193955 -3.5318112542628013 123.932554
14.191669994745524 -3.2007758738787317 112.670765
14.191669994745514 -3.2007758738787295 133.78662
15.659421896193964 -3.5318112542628035 127.68648400000001
15.659421896193951 -3.5318112542628004 112.04511
14.191669994745508 -3.2007758738787286 131.909655
7.586795821990491 -1.7111187785554596 108.29118
15.65942189619396 -3.531811254262803 126.27876100000002
15.659421896193967 -3.5318112542628044 120.804279
14.925545945469747 -3.366293564070768 120.022211
14.925545945469748 -3.3662935640707685 117.98883199999999
16.393293155036698 -3.6973278862523116 120.491452
14.925545945469727 -3.366293564070764 129.094208
14.92554594546973 -3.3662935640707645 126.591588
14.925545945469748 -3.3662935640707685 130.81475899999998
16.39329315503671 -3.6973278862523142 120.647866
14.925545945469736 -3.366293564070766 124.245382
14.925545945469736 -3.366293564070766 126.12234700000002
12.723922785178548 -2.8697415516971834 127.217243
14.191669994745507 -3.200775873878728 122.055589
14.92554594546973 -3.3662935640707645 132.22248300000004
15.659421896193948 -3.5318112542627995 123.61972700000001
14.191669994745508 -3.2007758738787286 114.54773000000002
14.92554594546975 -3.366293564070769 113.29642
14.925545945469727 -3.366293564070764 127.999312
14.191669994745522 -3.2007758738787317 122.212003
16.393293155036705 -3.6973278862523133 120.96069299999999
14.925545945469723 -3.366293564070763 132.53531
14.925545945469748 -3.3662935640707685 123.776141
14.191669994745519 -3.200775873878731 110.168145
14.92554594546974 -3.3662935640707667 132.378897
14.191669994745503 -3.2007758738787273 116.893936
14.925545945469752 -3.3662935640707694 111.575868
-0.0373810991521791 -13.795782523161122 130.971173
-0.04349646016670048 -16.05270360147128 117.83241800000002
-0.04349646016670048 -16.05270360147128 130.501932
-0.0373810991521791 -13.795782523161122 125.65310599999998
-0.04145800649519337 -15.3003965753679 111.732282
-0.03738109915217914 -13.795782523161137 126.591588
-0.03941955282368627 -14.548089549264523 110.168145
-0.03941955282368623 -14.548089549264509 133.00455200000002
-0.03941955282368627 -14.548089549264525 118.458073
-0.035342658513096696 -13.043480306774446 124.871037
-0.04145800649519341 -15.300396575367918 114.391316
-0.041458006495193364 -15.300396575367898 131.12758699999998
-0.04145800649519336 -15.300396575367897 123.463313
-0.043496460166700494 -16.052703601471283 110.950214
-0.04145800649519341 -15.300396575367916 122.52483100000002
-0.03941955282368628 -14.548089549264528 123.15048600000001
-0.0394195528236863 -14.548089549264535 133.630207
-0.039419552823686255 -14.548089549264517 133.78662
-0.039419552823686276 -14.548089549264526 130.814759
-0.03738109915217912 -13.79578252316113 121.586348
-0.04145800649519337 -15.300396575367902 124.245382
-0.03534265851309672 -13.043480306774455 114.86055699999999
-0.03941955282368622 -14.548089549264505 126.74800200000001
-0.0434964601667005 -16.052703601471286 111.10662700000002
-0.043496460166700515 -16.05270360147129 110.637386
-0.03738109915217912 -13.79578252316113 115.016971
-0.039419552823686255 -14.54808954926452 108.916835
-0.039419552823686234 -14.54808954926451 122.68124400000002
-0.04145800649519341 -15.300396575367916 128.781381
-0.043496460166700494 -16.052703601471283 119.709383
-0.03534265851309668 -13.043480306774443 113.452833
-0.04145800649519337 -15.300396575367902 120.960693
-0.035342658513096696 -13.043480306774448 123.776141
-0.043496460166700515 -16.05270360147129 108.604007
-0.041458006495193406 -15.300396575367914 110.7938
-0.04145800649519339 -15.300396575367909 119.240142
-0.0414580064951934 -15.300396575367913 121.89917599999998
-0.03941955282368624 -14.548089549264514 118.14524599999999
-0.041458006495193385 -15.300396575367905 117.363177
-0.03534265851309666 -13.043480306774436 112.51435100000002
-0.03941955282368622 -14.548089549264507 125.496692
-0.03941955282368624 -14.548089549264514 109.38607600000002
-0.04349646016670053 -16.052703601471297 133.16096499999998
-0.04145800649519339 -15.300396575367909 118.30166
-0.03941955282368628 -14.54808954926453 125.340278
-0.0434964601667005 -16.052703601471286 129.876277
-0.039419552823686255 -14.548089549264517 114.234902
-0.04145800649519335 -15.300396575367893 128.624967
-0.04145800649519335 -15.300396575367895 123.306899
-0.039419552823686234 -14.54808954926451 133.473793
-0.03126575117008241 -11.538866254567663 107.509111
-0.03330420484158955 -12.291173280671057 125.027451
-0.0414580064951934 -15.300396575367913 134.099448
-0.03738109915217914 -13.795782523161138 131.596828
-0.04145800649519337 -15.300396575367902 108.29118
-0.03534265851309669 -13.043480306774445 121.42993400000002
-0.03941955282368622 -14.548089549264507 115.329798
-0.04145800649519341 -15.300396575367916 128.155726
-0.04349646016670052 -16.052703601471293 110.480972
-0.035342658513096675 -13.04348030677444 112.983592
-0.03941955282368621 -14.548089549264503 132.53531000000004
-0.04145800649519335 -15.300396575367895 119.55297
-0.041458006495193385 -15.300396575367907 112.670765
-0.03738109915217911 -13.795782523161126 110.01173100000001
-0.03941955282368622 -14.548089549264507 125.965933
-0.035342658513096654 -13.043480306774432 108.760421
-0.04145800649519337 -15.300396575367902 117.676005
-0.03534265851309669 -13.043480306774445 117.206763
-0.04145800649519337 -15.300396575367902 130.345518
-0.03534265851309671 -13.043480306774452 119.396556
-0.041458006495193364 -15.300396575367898 116.737522
-0.03738109915217912 -13.79578252316113 129.09420800000004
-0.04145800649519341 -15.300396575367916 132.691724
-0.03941955282368624 -14.548089549264514 115.79903999999999
-0.04145800649519338 -15.300396575367904 130.658345
-0.03941955282368628 -14.54808954926453 109.229662
-0.03738109915217913 -13.795782523161135 118.927315
-0.041458006495193406 -15.300396575367914 129.719863
-0.041458006495193385 -15.300396575367907 111.263041
-0.04349646016670053 -16.052703601471297 121.117107
-0.041458006495193406 -15.300396575367914 112.04511000000001
-0.04553490080578296 -16.80500581785798 120.80427900000001
-0.037381099152179124 -13.795782523161131 133.943034
-0.04553490080578299 -16.805005817857996 108.447594
-0.0353426585130967 -13.04348030677445 128.312139
-0.04145800649519337 -15.3003965753679 113.14000600000001
-0.03738109915217916 -13.795782523161146 128.468553
-0.04145800649519339 -15.300396575367909 119.86579700000001
-0.03738109915217914 -13.795782523161138 112.827178
-0.03941955282368628 -14.54808954926453 126.435174
-0.037381099152179124 -13.795782523161133 125.809519
-0.043496460166700474 -16.052703601471276 117.05035
-0.03941955282368627 -14.548089549264525 130.189104
-0.03534265851309666 -13.043480306774436 109.69890400000001
-0.03738109915217917 -13.795782523161149 129.563449
-0.037381099152179145 -13.79578252316114 122.994072
-0.03738109915217915 -13.795782523161142 119.08372799999998
-0.043496460166700474 -16.052703601471276 111.888696
-0.03738109915217917 -13.795782523161149 127.060829
-0.03738109915217916 -13.795782523161144 131.28399999999996
-0.04145800649519341 -15.300396575367918 123.61972700000001
-0.043496460166700474 -16.052703601471276 127.53007099999999
-0.037381099152179124 -13.795782523161131 113.29642000000001
-0.03738109915217917 -13.795782523161149 129.407035
-0.03941955282368628 -14.548089549264528 114.704143
-0.03330420484158958 -12.291173280671066 108.13476600000001
-0.03941955282368623 -14.548089549264509 117.51959100000002
-0.043496460166700494 -16.052703601471283 120.178624
-0.0414580064951934 -15.300396575367913 131.753242
-0.041458006495193364 -15.300396575367898 122.368417
-0.03330420484158953 -12.29117328067105 109.85531700000001
-0.03941955282368628 -14.548089549264528 122.83765800000002
-0.04145800649519341 -15.300396575367916 115.486212
-0.043496460166700515 -16.05270360147129 111.575868
-0.043496460166700515 -16.05270360147129 132.84813800000003
-0.03738109915217917 -13.795782523161149 116.111867
-0.039419552823686234 -14.54808954926451 109.07324900000002
-0.039419552823686276 -14.548089549264526 118.614487
-0.04349646016670048 -16.05270360147128 130.03269
-0.03941955282368627 -14.548089549264523 115.642626
-0.04145800649519336 -15.300396575367897 122.055589
-0.03330420484158957 -12.291173280671064 115.173385
-0.04145800649519337 -15.3003965753679 129.250622
-0.03941955282368628 -14.54808954926453 124.08896800000001
-0.035342658513096696 -13.043480306774448 107.978352
-0.039419552823686276 -14.548089549264526 120.02221100000001
-0.037381099152179145 -13.79578252316114 127.373657
-0.03738109915217911 -13.795782523161126 132.22248300000004
-0.03534265851309667 -13.043480306774438 124.714623
-0.03534265851309665 -13.043480306774429 134.255862
-0.045534900805782944 -16.805005817857978 116.58110800000001
-0.03941955282368622 -14.548089549264507 127.99931200000002
-0.043496460166700494 -16.052703601471283 120.647866
-0.03941955282368626 -14.548089549264521 125.18386400000001
-0.04349646016670052 -16.052703601471293 113.60924700000001
-0.039419552823686276 -14.548089549264526 122.212003
-0.04145800649519338 -15.300396575367904 120.335038
-0.04145800649519335 -15.300396575367893 123.932554
-0.041458006495193385 -15.300396575367907 110.32455900000001
-0.035342658513096675 -13.04348030677444 134.412275
-0.04145800649519335 -15.300396575367893 132.06606899999997
-0.03941955282368622 -14.548089549264507 116.893936
-0.04145800649519338 -15.300396575367904 124.558209
-0.039419552823686255 -14.54808954926452 116.424695
-0.03738109915217914 -13.795782523161138 126.904416
-0.04145800649519341 -15.300396575367918 120.49145200000001
-0.041458006495193336 -15.30039657536789 127.84289799999999
-0.03941955282368623 -14.548089549264509 113.765661
-0.03738109915217912 -13.79578252316113 131.440414
-0.04145800649519335 -15.300396575367893 121.742762
-0.03330420484158959 -12.29117328067107 111.419455
-0.03941955282368626 -14.548089549264521 113.922075
-0.03330420484158955 -12.291173280671057 128.937794
-0.03941955282368626 -14.548089549264521 127.686484
-0.03941955282368623 -14.548089549264509 132.378897
-0.033304204841589545 -12.291173280671053 107.82193900000001
-0.03941955282368627 -14.548089549264525 124.40179599999999
-0.041458006495193385 -15.300396575367907 131.909655
-0.03738109915217916 -13.795782523161144 115.955453
-0.03941955282368628 -14.54808954926453 127.21724299999998
-0.04349646016670048 -16.05270360147128 114.078488
-0.0373810991521791 -13.795782523161122 126.278761
-0.04145800649519338 -15.300396575367904 114.54773
-0.03941955282368623 -14.548089549264509 126.12234700000002
-0.03941955282368628 -14.54808954926453 116.268281
-0.03941955282368626 -14.548089549264521 112.35793700000002
-0.03738109915217911 -13.795782523161126 109.54249
-0.0210734958449715 -7.777335933767446 107.196284
-0.03738109915217913 -13.795782523161135 133.317379
-0.03534265851309667 -13.043480306774438 112.201523
-0.039419552823686276 -14.548089549264526 121.273521
-0.043496460166700494 -16.052703601471283 117.988832
-0.03941955282368627 -14.548089549264523 118.770901
-0.02107349584497149 -7.777335933767443 107.352697
-0.02718885685949288 -10.034257012077603 107.665525
-14.208807146191306 -3.1238218446170887 117.51959100000002
-14.94356928883762 -3.285360108046293 133.160965
-14.208807146191328 -3.1238218446170936 126.904416
-14.208807146191306 -3.1238218446170887 125.027451
-15.678331431483903 -3.446898371475491 114.860557
-15.678331431483903 -3.446898371475491 112.357937
-14.208807146191308 -3.123821844617089 131.909655
-16.413088876583018 -3.608435602143788 112.827178
-14.943569288837603 -3.2853601080462895 130.501932
-14.208807146191322 -3.1238218446170922 128.312139
-13.474045003545015 -2.962283581187889 130.814759
-14.943569288837594 -3.2853601080462873 132.06606899999997
-14.208807146191313 -3.1238218446170904 117.832418
-13.474045003545013 -2.9622835811878887 126.278761
-15.678331431483903 -3.446898371475491 124.088968
-14.208807146191305 -3.1238218446170882 116.893936
-13.474045003545035 -2.9622835811878936 127.999312
-14.94356928883761 -3.285360108046291 129.563449
-14.943569288837612 -3.2853601080462913 112.201523
-12.739287558445904 -2.8007463505195926 130.971173
-14.208807146191315 -3.123821844617091 116.424695
-14.943569288837612 -3.2853601080462913 133.00455200000002
-14.94356928883761 -3.285360108046291 127.373657
-14.943569288837612 -3.2853601080462913 115.79904
-13.474045003545037 -2.962283581187894 123.619727
-14.943569288837617 -3.2853601080462926 122.52483100000002
-13.474045003545026 -2.962283581187892 131.12758700000003
-11.269763273153329 -2.477669823661196 123.463313
-14.943569288837597 -3.285360108046288 129.876277
-13.474045003545019 -2.96228358118789 128.937794
-15.678331431483892 -3.446898371475488 110.950214
-14.20880714619131 -3.1238218446170896 131.596828
-15.67833143148391 -3.446898371475492 113.765661
-15.6783314314839 -3.44689837147549 127.68648400000001
-14.9435692888376 -3.2853601080462886 122.368417
-14.208807146191319 -3.123821844617092 121.429934
-13.474045003545028 -2.9622835811878923 118.30166
-14.208807146191326 -3.123821844617093 116.581108
-9.800243685407922 -2.154594329563699 107.352697
-14.943569288837601 -3.285360108046289 115.955453
-13.474045003545019 -2.9622835811878905 124.558209
-16.41308887658303 -3.60843560214379 115.486212
-13.474045003545019 -2.9622835811878905 121.74276199999998
-14.943569288837608 -3.2853601080462904 115.173385
-14.208807146191326 -3.123821844617093 116.268281
-14.943569288837608 -3.2853601080462904 130.189104
-14.208807146191322 -3.1238218446170922 121.273521
-13.474045003545019 -2.96228358118789 123.93255399999998
-12.739287558445907 -2.8007463505195935 120.804279
-16.41308887658303 -3.60843560214379 111.26304100000002
-13.47404500354502 -2.9622835811878905 119.865797
-16.413088876583032 -3.608435602143791 112.67076499999999
-14.208807146191306 -3.1238218446170887 119.08372800000001
-12.739287558445897 -2.8007463505195913 128.155726
-15.678331431483896 -3.446898371475489 115.64262600000002
-12.00452541579962 -2.639208087090395 121.899176
-15.678331431483889 -3.4468983714754877 114.078488
-14.208807146191319 -3.123821844617092 132.69172400000002
-15.678331431483892 -3.446898371475488 134.099448
-14.208807146191322 -3.1238218446170922 108.44759400000001
-13.474045003545013 -2.9622835811878887 125.65310599999998
-15.6783314314839 -3.44689837147549 111.575868
-12.739287558445902 -2.8007463505195926 117.36317700000001
-15.678331431483906 -3.4468983714754913 112.983592
-14.208807146191301 -3.1238218446170873 132.53531000000004
-15.678331431483885 -3.446898371475487 134.255862
-14.943569288837615 -3.285360108046292 110.637386
-14.208807146191306 -3.1238218446170887 109.07324900000002
-13.474045003545028 -2.9622835811878923 118.458073
-14.20880714619131 -3.1238218446170896 124.87103700000002
-14.943569288837592 -3.285360108046287 127.84289799999999
-14.943569288837597 -3.285360108046288 118.92731500000001
-16.413088876583018 -3.608435602143788 113.922075
-14.208807146191319 -3.123821844617092 110.168145
-16.413088876583025 -3.608435602143789 109.54249
-13.474045003545035 -2.9622835811878936 108.760421
-14.943569288837605 -3.28536010804629 107.66552500000002
-16.413088876583032 -3.608435602143791 120.647866
-12.004525415799607 -2.6392080870903922 107.509111
-14.208807146191303 -3.123821844617088 126.74800200000001
-14.943569288837613 -3.2853601080462917 131.753242
-14.20880714619132 -3.123821844617092 123.306899
-13.474045003545031 -2.962283581187893 126.12234700000002
-14.208807146191306 -3.1238218446170887 113.45283300000001
-17.1478510192293 -3.769973865572985 112.51435100000002
-13.474045003545022 -2.962283581187891 125.809519
-15.678331431483889 -3.4468983714754877 114.70414300000002
-14.20880714619131 -3.1238218446170896 117.988832
-14.943569288837601 -3.285360108046289 114.234902
-16.413088876583025 -3.608435602143789 109.38607600000002
-14.20880714619132 -3.123821844617092 110.011731
-14.943569288837608 -3.2853601080462904 109.855317
-14.208807146191315 -3.123821844617091 108.916835
-13.474045003545022 -2.962283581187891 125.340278
-14.208807146191306 -3.1238218446170887 120.335038
-16.41308887658303 -3.60843560214379 120.96069299999999
-14.943569288837619 -3.2853601080462926 120.49145200000001
-13.474045003545031 -2.962283581187893 118.145246
-13.474045003545019 -2.96228358118789 117.20676299999998
-14.9435692888376 -3.2853601080462886 116.737522
-14.943569288837597 -3.285360108046288 125.96593300000002
-15.678331431483906 -3.4468983714754913 121.117107
-14.208807146191322 -3.1238218446170922 118.614487
-14.943569288837603 -3.2853601080462895 124.245382
-13.474045003545031 -2.962283581187893 126.435174
-14.208807146191328 -3.1238218446170936 108.29118000000001
-14.208807146191305 -3.1238218446170882 125.496692
-14.208807146191319 -3.123821844617092 113.29642
-14.943569288837603 -3.2853601080462895 115.32979800000001
-14.208807146191306 -3.1238218446170887 122.68124400000002
-15.6783314314839 -3.44689837147549 108.604007
-12.73928755844591 -2.8007463505195944 129.719863
-14.943569288837612 -3.2853601080462913 111.41945500000001
-12.73928755844591 -2.8007463505195944 123.776141
-14.208807146191324 -3.1238218446170927 131.284
-14.943569288837605 -3.28536010804629 109.22966199999999
-15.678331431483885 -3.446898371475487 130.345518
-13.474045003545019 -2.9622835811878905 131.440414
-16.413088876583032 -3.608435602143791 114.54773
-12.739287558445891 -2.80074635051959 128.781381
-14.208807146191313 -3.1238218446170904 107.821939
-15.6783314314839 -3.44689837147549 116.11186700000002
-15.678331431483906 -3.4468983714754913 111.73228200000001
-14.208807146191312 -3.12382184461709 127.530071
-14.208807146191319 -3.123821844617092 124.714623
-14.943569288837597 -3.285360108046288 132.22248300000004
-14.943569288837596 -3.2853601080462878 119.55297
-14.208807146191306 -3.1238218446170887 132.378897
-13.474045003545024 -2.9622835811878914 120.022211
-12.00452541579961 -2.639208087090393 130.03269
-9.800243685407914 -2.154594329563697 107.196284
-13.474045003545019 -2.9622835811878905 115.016971
-13.474045003545038 -2.9622835811878945 127.060829
-13.47404500354503 -2.9622835811878927 123.15048600000001
-12.00452541579961 -2.639208087090393 110.48097199999998
-15.678331431483885 -3.446898371475487 111.888696
-13.474045003545035 -2.9622835811878936 127.21724299999998
-14.208807146191306 -3.1238218446170887 108.134766
-12.739287558445902 -2.8007463505195926 134.412275
-14.943569288837615 -3.285360108046292 112.04511000000001
-15.67833143148391 -3.446898371475492 122.212003
-13.474045003545024 -2.9622835811878914 124.40179599999999
-14.20880714619131 -3.1238218446170896 119.70938300000002
-15.678331431483885 -3.446898371475487 114.391316
-13.474045003545026 -2.962283581187892 126.591588
-13.474045003545019 -2.9622835811878905 129.09420800000004
-14.208807146191313 -3.1238218446170904 133.78662
-14.943569288837603 -3.2853601080462895 117.676005
-13.474045003545015 -2.962283581187889 119.24014199999999
-14.208807146191313 -3.1238218446170904 121.586348
-14.943569288837594 -3.2853601080462873 118.770901
-14.20880714619132 -3.123821844617092 111.10662700000002
-13.47404500354503 -2.9622835811878927 132.84813800000003
-12.739287558445904 -2.8007463505195926 113.609247
-14.943569288837597 -3.285360108046288 133.943034
-14.208807146191306 -3.1238218446170887 130.65834500000003
-14.208807146191322 -3.1238218446170922 110.32455900000001
-15.678331431483903 -3.446898371475491 122.837658
-12.739287558445902 -2.8007463505195926 128.624967
-14.208807146191306 -3.1238218446170887 122.055589
-12.004525415799618 -2.6392080870903945 133.317379
-14.208807146191319 -3.123821844617092 119.39655600000002
-13.474045003545038 -2.9622835811878945 109.698904
-12.73928755844589 -2.80074635051959 133.47379300000003
-15.67833143148391 -3.446898371475492 110.7938
-13.474045003545022 -2.962283581187891 117.05035
-13.474045003545026 -2.962283581187892 107.978352
-14.208807146191326 -3.123821844617093 122.994072
-15.678331431483892 -3.446898371475488 113.14000600000001
-13.474045003545019 -2.96228358118789 129.250622
-13.474045003545038 -2.9622835811878945 129.407035
-12.739287558445902 -2.8007463505195926 133.630207
-13.474045003545035 -2.9622835811878936 128.468553
-14.208807146191317 -3.1238218446170913 120.17862400000001
-12.7392875584459 -2.800746350519592 125.183864
-6.137679437049646 13.190047557252475 117.51959100000002
-6.137679437049645 13.190047557252472 126.591588
-6.455069521075918 13.87212786878456 112.670765
-6.455069521075924 13.87212786878457 133.160965
-4.868121130111304 10.461730671861151 125.027451
-6.455069521075918 13.87212786878456 114.860557
-6.137679437049651 13.190047557252486 112.35793700000002
-5.82028935302339 12.507967245720424 131.909655
-6.137679437049654 13.190047557252491 112.82717800000002
-6.455069521075914 13.872127868784549 128.312139
-5.185511214137574 11.14381098339323 130.814759
-5.502901298163841 11.825891294925302 114.39131600000002
-5.820289353023388 12.50796724572042 108.760421
-6.137679437049653 13.19004755725249 132.066069
-6.1376794370496555 13.190047557252495 124.08896800000001
-5.820289353023388 12.50796724572042 127.999312
-6.137679437049647 13.190047557252477 123.46331300000001
-5.82028935302339 12.507967245720424 129.563449
-6.772459605102187 14.554208180316635 110.011731
-6.772459605102185 14.554208180316632 111.575868
-6.455069521075917 13.872127868784556 117.20676299999998
-5.185511214137571 11.143810983393223 127.530071
-6.772459605102185 14.554208180316632 116.424695
-6.455069521075919 13.872127868784561 133.00455200000002
-6.455069521075921 13.872127868784565 123.776141
-6.1376794370496475 13.190047557252479 127.37365699999998
-6.137679437049657 13.190047557252498 133.630207
-6.137679437049648 13.19004755725248 115.79903999999999
-6.455069521075922 13.872127868784567 122.52483100000002
-5.5029012981638346 11.82589129492529 131.127587
-5.820289353023378 12.507967245720401 123.30689899999999
-6.455069521075914 13.872127868784549 129.876277
-5.820289353023381 12.507967245720405 128.937794
-6.455069521075914 13.872127868784549 122.055589
-6.455069521075915 13.87212786878455 113.765661
-6.137679437049651 13.190047557252486 127.686484
-5.502901298163846 11.825891294925315 122.368417
-6.45506952107592 13.872127868784563 121.429934
-6.455069521075919 13.87212786878456 118.30166
-6.137679437049651 13.190047557252486 111.419455
-6.1376794370496555 13.190047557252495 116.581108
-6.455069521075922 13.872127868784567 128.781381
-5.820289353023387 12.50796724572042 115.955453
-5.502901298163842 11.825891294925304 131.440414
-6.137679437049647 13.190047557252477 120.64786600000001
-6.772459605102182 14.554208180316625 115.48621200000001
-5.820289353023388 12.50796724572042 132.378897
-5.50290129816384 11.8258912949253 121.742762
-6.137679437049653 13.19004755725249 130.189104
-6.1376794370496555 13.190047557252496 123.932554
-5.8202893530233855 12.507967245720415 121.27352099999999
-5.5029012981638425 11.825891294925306 130.501932
-5.820289353023382 12.507967245720408 120.804279
-6.455069521075913 13.872127868784547 131.596828
-5.502901298163844 11.825891294925311 109.073249
-5.502901298163841 11.825891294925302 108.604007
-6.1376794370496555 13.190047557252495 116.268281
-6.137679437049646 13.190047557252475 119.08372800000001
-6.455069521075921 13.872127868784565 117.98883199999999
-6.455069521075919 13.872127868784561 115.642626
-6.77245960510218 14.554208180316621 114.078488
-6.455069521075918 13.87212786878456 115.173385
-5.820289353023379 12.507967245720403 113.452833
-6.455069521075922 13.872127868784567 113.29642
-6.137679437049652 13.190047557252488 132.69172400000002
-5.820289353023388 12.50796724572042 134.09944800000002
-6.455069521075914 13.872127868784549 108.447594
-6.455069521075914 13.872127868784549 125.653106
-6.772459605102187 14.554208180316635 113.60924700000001
-6.455069521075914 13.872127868784549 121.586348
-5.50290129816384 11.8258912949253 122.994072
-6.772459605102188 14.554208180316637 120.491452
-6.455069521075918 13.87212786878456 112.98359200000002
-6.137679437049644 13.19004755725247 132.53531000000004
-6.137679437049654 13.190047557252491 111.263041
-5.820289353023386 12.507967245720419 110.950214
-6.137679437049647 13.190047557252477 130.65834500000003
-5.820289353023387 12.50796724572042 131.28399999999996
-5.502901298163844 11.825891294925311 108.29118
-6.77245960510218 14.554208180316621 117.676005
-6.4550695210759175 13.872127868784558 118.458073
-6.137679437049648 13.19004755725248 124.87103700000002
-6.455069521075921 13.872127868784565 115.016971
-6.137679437049653 13.19004755725249 118.927315
-6.455069521075919 13.872127868784561 112.201523
-6.137679437049648 13.19004755725248 109.38607600000002
-3.9159529071992396 8.415494098001922 107.19628399999999
-4.868121130111306 10.461730671861154 107.509111
-6.455069521075923 13.872127868784569 126.748002
-5.82028935302338 12.507967245720405 109.54249
-6.13767943704965 13.190047557252482 124.558209
-6.137679437049646 13.190047557252475 126.12234700000002
-5.185511214137577 11.143810983393237 124.714623
-6.772459605102182 14.554208180316625 119.55297
-4.868121130111311 10.461730671861167 107.352697
-5.1855112141375805 11.143810983393244 125.80951899999998
-6.455069521075914 13.872127868784549 111.106627
-6.13767943704965 13.190047557252482 114.234902
-5.820289353023387 12.50796724572042 109.855317
-6.455069521075915 13.872127868784553 130.03268999999997
-5.8202893530233855 12.507967245720415 108.916835
-5.820289353023379 12.507967245720403 134.255862
-5.820289353023382 12.507967245720408 111.732282
-6.455069521075916 13.872127868784554 120.960693
-5.502901298163838 11.825891294925297 123.619727
-6.137679437049646 13.190047557252475 129.09420800000004
-6.772459605102184 14.554208180316628 119.86579700000001
-6.772459605102184 14.554208180316628 119.39655600000002
-6.45506952107592 13.872127868784563 120.022211
-5.502901298163839 11.825891294925299 124.24538200000002
-5.82028935302339 12.507967245720424 125.183864
