ply
format ascii 1.0
element vertex 932
property float32 x
property float32 y
property float32 z
element face 0
property list uint8 int32 vertex_indices
end_header
8.84744989945995 -7.407364056433511 24.922653
51.53302108773402 -43.145070326762934 67.467192
52.109854077701875 -43.62801309614937 62.149125000000005
9.424282889427799 -7.890306825819945 16.319897
49.80252580569083 -41.69624510619661 76.695603
23.84508182360152 -19.963854447329897 111.106627
9.424282889427793 -7.89030682581994 47.602647
10.001115879395647 -8.373249595206378 55.110506
9.424282889427795 -7.890306825819943 44.317958000000004
82.1051216138454 -68.74099696553515 35.871616
8.84744989945994 -7.4073640564335035 79.823878
33.07439491164569 -27.69092640714091 90.61642700000002
10.577945181503134 -8.856189276999823 45.25643999999999
22.691419531526186 -18.997971996150017 111.732282
52.109854077701875 -43.62801309614937 61.83629700000001
8.84744989945995 -7.407364056433511 33.525409
10.57794518150314 -8.856189276999828 81.07518800000001
10.001115879395643 -8.373249595206376 87.488152
38.842717435603475 -32.52034792581929 86.393255
8.847449899459951 -7.407364056433513 51.200163
50.956188097766166 -42.662127557376486 75.75712100000001
10.00111587939565 -8.373249595206381 54.015609999999995
48.64885982575513 -40.73035956742375 82.326498
82.1051216138454 -68.74099696553515 35.558788000000014
10.577945181503141 -8.856189276999828 7.717141000000002
38.26588444563563 -32.037405156432854 85.611187
48.07203052364763 -40.24741988563029 64.651745
9.424282889427799 -7.890306825819945 18.822517000000005
8.84744989945995 -7.407364056433511 58.23878100000001
9.424282889427795 -7.890306825819943 25.704722000000004
9.424282889427792 -7.890306825819939 79.354637
50.95618809776617 -42.6621275573765 76.539189
8.847449899459946 -7.407364056433509 50.418094
50.379358795658675 -42.17918787558305 83.890636
8.847449899459948 -7.40736405643351 26.956032
49.80252580569083 -41.69624510619661 64.182504
10.001115879395643 -8.373249595206376 57.143885
50.95618809776617 -42.6621275573765 63.244021000000004
9.424282889427799 -7.8903068258199465 16.00707
9.424282889427793 -7.89030682581994 59.959332
10.001115879395654 -8.373249595206385 88.27022
7.69378760738461 -6.441481605253629 12.878795000000002
51.53302108773402 -43.145070326762934 64.02609
23.268252521494027 -19.480914765536443 110.7938
10.00111587939565 -8.373249595206381 87.644565
53.26351636977722 -44.593895547329254 67.93643300000001
9.424282889427799 -7.8903068258199465 10.532589
9.424282889427802 -7.890306825819948 58.864436
10.001115879395641 -8.373249595206374 83.264981
9.4242828894278 -7.890306825819947 81.54442899999998
37.11222215356028 -31.071522705252967 86.86249700000002
37.68905145566777 -31.554462387046417 86.23684200000001
50.379358795658675 -42.17918787558305 63.869676000000005
7.693787607384604 -6.441481605253625 82.170084
8.847449899459948 -7.40736405643351 52.920714
9.424282889427799 -7.8903068258199465 8.186383000000001
31.920732619570362 -26.725043955961038 92.493392
10.577945181503141 -8.856189276999828 7.560728000000004
10.001115879395647 -8.37324959520638 25.079067
7.6937876073846105 -6.441481605253631 79.511051
8.847449899459948 -7.40736405643351 46.976991999999996
10.001115879395647 -8.37324959520638 24.766240000000003
49.225692815722965 -41.213302336810166 76.382776
9.424282889427799 -7.890306825819945 54.954093
7.693787607384607 -6.441481605253627 51.043749
8.847449899459951 -7.4073640564335115 14.599346000000002
9.424282889427795 -7.890306825819943 79.667464
10.577945181503141 -8.856189276999828 45.100027
10.001115879395645 -8.373249595206376 60.115745999999994
10.001115879395645 -8.373249595206376 81.231602
22.69141953152619 -18.99797199615002 109.54249000000002
49.80252580569083 -41.69624510619661 75.131466
50.956188097766166 -42.662127557376486 64.495331
10.00111587939565 -8.373249595206381 57.300299
9.424282889427797 -7.890306825819944 20.855895999999998
8.847449899459953 -7.407364056433514 79.19822300000001
84.98927918796393 -71.15570463728135 9.437693000000003
52.109854077701875 -43.62801309614937 62.77478
8.270616909492093 -6.924421287047069 87.800979
39.41955042557133 -33.00329069520572 85.92401399999999
52.68668706766972 -44.1109558655358 67.78002
8.270616909492098 -6.924421287047074 73.880156
50.37935879565867 -42.17918787558303 75.91353400000001
7.693787607384604 -6.441481605253625 44.787199
10.001115879395641 -8.373249595206374 84.203463
50.95618809776617 -42.6621275573765 61.99271100000001
8.847449899459948 -7.40736405643351 25.548308
23.845081823601532 -19.963854447329904 111.41945500000001
10.001115879395648 -8.37324959520638 17.101966000000004
10.577945181503138 -8.856189276999826 56.987471
8.84744989945995 -7.407364056433511 66.372296
10.001115879395648 -8.37324959520638 69.969812
22.691419531526186 -18.997971996150017 109.38607600000002
8.847449899459946 -7.407364056433509 50.730921
9.424282889427799 -7.8903068258199465 31.804858
22.11458654155835 -18.51502922676359 112.201523
10.001115879395648 -8.37324959520638 27.894514999999995
50.95618809776617 -42.6621275573765 75.444293
9.424282889427795 -7.890306825819943 45.725682
8.847449899459948 -7.40736405643351 37.904994
9.4242828894278 -7.890306825819947 21.481551000000003
10.001115879395641 -8.373249595206374 72.31601800000001
8.847449899459951 -7.4073640564335115 47.289819
8.270616909492096 -6.924421287047073 40.251200000000004
9.424282889427799 -7.8903068258199465 55.26692
8.847449899459948 -7.40736405643351 36.340857
10.001115879395648 -8.37324959520638 8.968451
10.00111587939565 -8.373249595206381 59.490091
8.847449899459951 -7.4073640564335115 70.908295
9.424282889427797 -7.890306825819944 23.827757
9.424282889427797 -7.890306825819944 53.233541
27.306076075548265 -22.86150797605552 112.670765
9.424282889427793 -7.890306825819941 36.497271
8.270616909492096 -6.924421287047073 42.597407
8.847449899459951 -7.4073640564335115 13.660864000000002
48.07203052364763 -40.247419885630286 89.52153
10.577945181503141 -8.856189276999828 11.314658
9.424282889427797 -7.890306825819944 81.700843
8.847449899459951 -7.4073640564335115 14.912174
9.424282889427795 -7.890306825819943 33.68182300000001
10.001115879395647 -8.373249595206378 88.42663400000002
8.847449899459944 -7.407364056433506 66.21588200000001
9.424282889427799 -7.890306825819945 10.219761
10.001115879395647 -8.373249595206378 27.425273
9.424282889427797 -7.890306825819944 48.541129
8.270616909492096 -6.924421287047073 40.094787
10.00111587939565 -8.373249595206381 57.613126
9.424282889427799 -7.8903068258199465 17.25838
50.379358795658675 -42.17918787558305 77.47767200000001
10.001115879395647 -8.373249595206378 26.330377
10.001115879395654 -8.373249595206383 84.67270400000001
50.95618809776617 -42.6621275573765 78.10332700000001
49.80252580569083 -41.69624510619661 77.63408600000001
8.84744989945995 -7.407364056433511 16.163484
50.37935879565867 -42.17918787558303 77.790499
54.417182349712895 -45.559781086102106 69.813398
10.001115879395641 -8.373249595206374 88.113807
8.847449899459951 -7.4073640564335115 13.817277000000002
9.424282889427793 -7.890306825819941 42.440993
10.00111587939565 -8.373249595206381 23.514930000000003
49.80252580569083 -41.69624510619661 65.590227
8.2706169094921 -6.9244212870470765 87.331738
9.424282889427799 -7.8903068258199465 53.70278299999999
9.424282889427799 -7.890306825819945 48.853956
8.84744989945995 -7.407364056433511 19.761
8.847449899459946 -7.407364056433509 29.458652000000004
51.53302108773402 -43.145070326762934 65.2774
10.577945181503141 -8.856189276999828 57.456712
9.424282889427795 -7.890306825819943 38.530649
6.54012162744891 -5.47559606648076 5.996590000000001
9.424282889427799 -7.8903068258199465 7.2479000000000005
9.424282889427793 -7.890306825819941 53.38995499999999
10.001115879395647 -8.373249595206378 44.943613
8.84744989945995 -7.407364056433511 22.107206
52.68668706766972 -44.1109558655358 67.623606
49.80252580569083 -41.69624510619661 64.338917
50.95618809776617 -42.6621275573765 63.08760699999999
10.001115879395647 -8.37324959520638 23.671343
10.001115879395647 -8.37324959520638 71.221122
9.424282889427802 -7.890306825819948 33.994651
8.84744989945995 -7.407364056433511 23.358516000000005
8.27061690949209 -6.924421287047068 73.41091499999999
9.424282889427795 -7.890306825819943 53.546369
10.001115879395648 -8.37324959520638 88.583048
8.847449899459948 -7.40736405643351 38.217822
10.001115879395647 -8.37324959520638 49.479611
9.424282889427793 -7.89030682581994 81.388016
10.001115879395647 -8.373249595206378 28.050928000000003
10.00111587939565 -8.373249595206381 49.166784
51.533021087734014 -43.14507032676293 89.208703
8.847449899459948 -7.40736405643351 46.820578
10.001115879395647 -8.373249595206378 42.910234
10.001115879395645 -8.373249595206376 26.486791000000004
8.847449899459946 -7.407364056433509 30.084306999999995
10.001115879395648 -8.37324959520638 74.03657
10.001115879395648 -8.37324959520638 84.829118
10.00111587939565 -8.373249595206381 80.605947
38.842717435603475 -32.52034792581929 86.08042800000001
9.424282889427799 -7.8903068258199465 34.307478
10.001115879395648 -8.37324959520638 30.397135000000002
8.847449899459951 -7.4073640564335115 43.379475
8.847449899459946 -7.407364056433509 40.72044199999999
7.693787607384605 -6.441481605253626 39.938373
9.424282889427792 -7.890306825819939 54.328438
9.4242828894278 -7.890306825819947 65.74664099999998
10.001115879395647 -8.373249595206378 40.407614
49.80252580569081 -41.6962451061966 88.739462
51.53302108773402 -43.145070326762934 63.400435
9.424282889427799 -7.8903068258199465 21.325137
10.001115879395645 -8.373249595206376 52.451473
9.424282889427793 -7.89030682581994 49.323198
10.57794518150314 -8.856189276999828 45.412854
8.847449899459951 -7.4073640564335115 11.471071
53.26351636977722 -44.593895547329254 61.52347000000002
10.001115879395645 -8.373249595206376 28.989411000000004
8.847449899459946 -7.407364056433507 43.066648
8.847449899459951 -7.4073640564335115 6.622245000000002
8.847449899459948 -7.40736405643351 38.374236
8.84744989945995 -7.407364056433511 18.50969
9.424282889427799 -7.8903068258199465 32.117686
9.424282889427793 -7.890306825819941 80.44953299999999
10.001115879395647 -8.37324959520638 14.442932000000003
55.570844641788256 -46.525663537282 69.500571
11.15477817147099 -9.339132046386263 7.404313999999999
9.424282889427799 -7.890306825819945 15.068587
9.424282889427797 -7.890306825819944 36.184443
8.847449899459946 -7.407364056433507 32.274099
9.424282889427795 -7.890306825819943 45.88209499999999
5.963288637481059 -4.992653297094324 22.420033
9.424282889427799 -7.8903068258199465 72.472432
7.69378760738461 -6.441481605253629 10.689003000000001
10.577945181503134 -8.856189276999823 82.952153
9.424282889427799 -7.890306825819945 8.342796
9.424282889427799 -7.8903068258199465 14.130105
8.847449899459951 -7.407364056433513 21.01231
9.4242828894278 -7.890306825819947 34.62030600000001
9.424282889427799 -7.8903068258199465 53.077128
10.577945181503141 -8.856189276999828 26.01755
8.847449899459948 -7.40736405643351 14.286519
22.114586541558335 -18.51502922676358 109.855317
9.424282889427792 -7.890306825819939 60.27216
8.270616909492098 -6.924421287047076 13.191622
8.84744989945995 -7.407364056433511 43.692303
10.001115879395643 -8.373249595206376 31.961271999999997
9.424282889427797 -7.890306825819944 41.033269
50.37935879565867 -42.17918787558303 88.895875
49.22569281572298 -41.21330233681017 74.975052
8.270616909492102 -6.924421287047077 18.666104
8.847449899459946 -7.407364056433509 51.982231
9.424282889427799 -7.890306825819945 15.537829
10.001115879395648 -8.37324959520638 36.653684
8.847449899459948 -7.40736405643351 27.738101
9.424282889427802 -7.890306825819948 50.105266
7.116954617416759 -5.958538835867194 31.648443999999998
9.424282889427802 -7.890306825819948 80.293119
9.424282889427799 -7.890306825819945 87.175324
8.847449899459946 -7.407364056433507 66.52871000000002
83.25878390592074 -69.70687941671503 12.565967000000004
50.37935879565867 -42.17918787558303 62.618365999999995
9.424282889427799 -7.890306825819945 66.997951
9.424282889427795 -7.890306825819943 29.77148
8.847449899459951 -7.4073640564335115 19.135345
8.847449899459951 -7.4073640564335115 51.669404
8.847449899459951 -7.4073640564335115 38.843477
10.001115879395647 -8.37324959520638 21.168724000000005
8.847449899459951 -7.4073640564335115 39.156304000000006
48.64885982575513 -40.73035956742374 77.00843099999999
10.001115879395643 -8.373249595206376 71.690363
10.577945181503136 -8.856189276999825 47.44623300000001
79.2209603518665 -66.32628620619595 36.02802900000001
9.424282889427799 -7.8903068258199465 32.899754
54.41718234971291 -45.55978108610211 68.71850200000002
9.424282889427797 -7.890306825819944 26.643205
8.847449899459946 -7.407364056433507 58.395194999999994
9.424282889427795 -7.890306825819943 53.859196
8.847449899459946 -7.407364056433509 59.646505000000005
8.270616909492093 -6.924421287047071 81.857257
80.95145563390969 -67.77511142676227 41.346097
8.847449899459946 -7.407364056433509 35.08954700000001
9.424282889427797 -7.890306825819944 73.723742
8.847449899459951 -7.407364056433513 56.205403
8.847449899459948 -7.40736405643351 40.876855
10.001115879395647 -8.37324959520638 28.832997000000002
84.98927918796393 -71.15570463728135 9.906934000000001
85.56611217793179 -71.63864740666779 9.594106000000014
10.001115879395647 -8.37324959520638 15.381415
9.424282889427799 -7.8903068258199465 16.945552
53.84034935974506 -45.07683831671568 68.249261
9.424282889427788 -7.890306825819937 82.795739
8.847449899459955 -7.407364056433515 66.84153700000002
8.847449899459951 -7.4073640564335115 55.423334
8.84744989945995 -7.407364056433511 37.122926
8.84744989945995 -7.407364056433511 17.884035
50.95618809776617 -42.6621275573765 63.713262
80.37462264394185 -67.29216865737584 41.658924000000006
10.001115879395647 -8.37324959520638 15.225001
50.379358795658675 -42.17918787558305 60.89781500000001
9.424282889427797 -7.890306825819944 32.430513
22.69141953152619 -18.99797199615002 111.888696
8.84744989945995 -7.407364056433511 22.576447000000005
9.424282889427799 -7.8903068258199465 50.26168
9.4242828894278 -7.890306825819947 19.604586
8.270616909492098 -6.924421287047076 38.999891
9.424282889427799 -7.890306825819945 20.073827
8.847449899459953 -7.407364056433514 70.595467
7.6937876073846025 -6.441481605253624 78.885396
8.84744989945995 -7.407364056433511 15.694242000000001
8.847449899459951 -7.4073640564335115 44.00513
9.424282889427792 -7.890306825819939 80.136706
8.847449899459951 -7.4073640564335115 43.535889
9.424282889427793 -7.89030682581994 49.948853
9.424282889427799 -7.8903068258199465 11.158244000000002
8.847449899459946 -7.407364056433507 58.551609000000006
8.2706169094921 -6.9244212870470765 18.196862
8.270616909492098 -6.924421287047076 6.778659
9.424282889427799 -7.8903068258199465 34.776719
10.001115879395648 -8.37324959520638 52.29505900000001
10.001115879395643 -8.373249595206376 59.802919
8.270616909492098 -6.924421287047074 21.637965000000005
8.270616909492098 -6.924421287047076 51.825818
9.4242828894278 -7.890306825819947 45.569268
7.11695461741676 -5.958538835867195 32.743341
31.92073261957035 -26.725043955961027 91.085668
87.87344044994279 -73.5704153966205 48.071888000000015
85.56611217793179 -71.63864740666777 9.750520000000018
8.847449899459946 -7.407364056433507 73.25450100000002
8.270616909492098 -6.924421287047074 29.302238
8.270616909492093 -6.924421287047071 46.351337
7.6937876073846105 -6.441481605253631 17.414794
9.424282889427799 -7.890306825819945 52.607886
10.577945181503141 -8.856189276999828 7.873555000000001
10.001115879395641 -8.373249595206374 78.41615400000002
81.52828862387756 -68.25805419614872 35.715202
7.1169546174167575 -5.958538835867193 39.312718
8.270616909492094 -6.924421287047072 48.697543
8.270616909492098 -6.924421287047074 42.128165
8.847449899459946 -7.407364056433507 70.751881
84.98927918796393 -71.15570463728135 11.940313000000005
10.57794518150314 -8.856189276999828 8.029969000000003
9.424282889427795 -7.890306825819943 29.145825
51.53302108773402 -43.145070326762934 62.305539
9.424282889427799 -7.890306825819945 24.140585
6.540121627448906 -5.475596066480756 37.592167
10.57794518150314 -8.856189276999828 11.001830000000002
8.847449899459951 -7.407364056433513 50.574507999999994
10.00111587939565 -8.373249595206381 79.041809
9.424282889427799 -7.8903068258199465 66.68512299999999
8.270616909492102 -6.924421287047077 48.228302
7.1169546174167575 -5.958538835867193 39.781959
8.84744989945995 -7.407364056433511 31.179202999999998
51.53302108773402 -43.145070326762934 65.120986
8.84744989945995 -7.407364056433511 6.4658310000000006
6.540121627448907 -5.475596066480757 55.89257500000001
9.424282889427799 -7.8903068258199465 46.50775
8.847449899459948 -7.40736405643351 56.674644
50.379358795658675 -42.17918787558305 83.577808
8.2706169094921 -6.9244212870470765 49.01037000000001
7.116954617416755 -5.9585388358671905 37.279339
8.270616909492098 -6.924421287047076 13.035209
8.84744989945995 -7.407364056433511 60.584987
7.69378760738461 -6.441481605253629 10.063348
9.424282889427797 -7.890306825819944 44.630785
10.001115879395645 -8.373249595206376 82.482912
6.54012162744891 -5.47559606648076 5.840176
8.847449899459946 -7.407364056433509 30.240721
8.270616909492098 -6.924421287047074 51.512989999999995
9.4242828894278 -7.890306825819947 29.927893
8.847449899459946 -7.407364056433507 47.133404999999996
9.424282889427799 -7.890306825819945 16.632725
7.116954617416754 -5.95853883586719 51.356576
7.1169546174167575 -5.958538835867193 32.586927
8.847449899459951 -7.4073640564335115 7.091486000000001
9.424282889427797 -7.890306825819944 40.564028
9.424282889427795 -7.890306825819943 49.63602499999999
8.847449899459951 -7.4073640564335115 10.845416000000002
8.270616909492098 -6.924421287047076 30.866376000000002
10.001115879395645 -8.373249595206376 57.92595399999999
8.847449899459946 -7.407364056433507 56.048989000000006
9.424282889427792 -7.890306825819939 72.94167299999998
10.577945181503132 -8.856189276999821 83.10856700000001
6.54012162744891 -5.47559606648076 5.527349
7.11695461741676 -5.958538835867195 13.973691000000002
8.847449899459946 -7.407364056433509 74.818638
8.2706169094921 -6.9244212870470765 16.789139000000002
7.116954617416759 -5.958538835867194 6.153004000000001
8.847449899459951 -7.407364056433513 41.189683
7.116954617416759 -5.958538835867194 43.22306199999999
5.963288637481061 -4.992653297094326 27.26886
5.96328863748106 -4.992653297094325 5.683763000000001
8.27061690949209 -6.924421287047068 73.567328
8.847449899459946 -7.407364056433509 20.230241
8.847449899459951 -7.4073640564335115 38.06140800000001
8.84744989945995 -7.407364056433511 24.609826
8.2706169094921 -6.9244212870470765 22.26362
8.270616909492098 -6.924421287047074 55.57974800000001
5.963288637481061 -4.992653297094326 5.370935000000001
-31.603809207622856 -61.01526583655908 67.154365
-5.653102423646357 -10.914049787925016 19.917414000000004
-14.649346527739503 -28.282469586175907 111.106627
-27.45169603370093 -52.9990710979445 117.20676300000001
-29.873761498786543 -57.675183627762664 78.259741
-30.911789239231524 -59.679231244709314 75.287879
-5.307092439450686 -10.246032492000124 45.725682
-54.09442057392675 -104.43631746760033 8.499209999999994
-32.9878469322635 -63.687330749430615 63.244021
-5.653102423646358 -10.914049787925018 22.889275
-32.29582696387216 -62.35129615758082 70.439053
-49.596297415809154 -95.75210543306088 17.571206999999998
-27.451696033700937 -52.999071097944515 84.51629
-4.961082455255019 -9.578015196075237 6.935073000000002
-54.09442057392675 -104.43631746760033 7.8735550000000165
-32.64183694806783 -63.01931345350571 72.003191
-31.25779922342719 -60.347248540634205 74.192983
-5.307092439450687 -10.246032492000126 41.658924
-5.653102423646354 -10.914049787925011 47.759060000000005
-4.9610824552550135 -9.578015196075226 110.011731
-29.873761498786543 -57.675183627762664 77.164844
-29.18174153039521 -56.3391490359129 80.293119
-26.0676583090603 -50.327006185072996 87.175324
-28.835733758341576 -55.671136010816035 79.98029200000002
-50.980335140449796 -98.4241703459324 16.476310999999992
-31.603809207622863 -61.015265836559095 67.310778
-23.299582859779015 -44.98287635932994 115.173385
-5.307092439450687 -10.246032492000126 26.173963
-26.413668293255963 -50.99502348099788 87.01891
-5.999112407842025 -11.582067083849905 30.553548
-32.29582696387216 -62.35129615758082 73.09808700000002
-26.759676065309595 -51.66303650609473 117.05035000000001
-50.980335140449796 -98.4241703459324 17.258380000000002
-5.9991124078420235 -11.582067083849902 60.741401
-31.603809207622863 -61.015265836559095 74.34939700000001
-5.307092439450688 -10.246032492000127 41.815338
-23.299582859779015 -44.98287635932994 89.677944
-5.999112407842024 -11.582067083849902 20.386655
-32.641836948067834 -63.019313453505724 62.93119400000001
-32.29582696387216 -62.35129615758083 67.467192
-27.797703805754576 -53.66708412304138 84.359877
-32.641836948067834 -63.019313453505724 70.595467
-14.649346527739509 -28.282469586175917 112.35793700000002
-53.40240281767745 -103.1002871465786 9.750520000000018
-26.7596760653096 -51.663036506094734 84.829118
-16.379394236575813 -31.622551794972324 112.827178
-53.05639283348177 -102.43226985065371 11.001829999999996
-5.307092439450688 -10.246032492000127 29.302238
-5.999112407842025 -11.582067083849905 36.810098
-5.307092439450688 -10.246032492000127 28.520169999999997
-5.999112407842025 -11.582067083849905 61.836297
-5.999112407842024 -11.582067083849902 25.391895000000005
-5.653102423646356 -10.914049787925014 38.999891
-53.74841058973107 -103.76830017167545 8.65562400000001
-5.653102423646355 -10.914049787925013 58.708022
-29.181741530395207 -56.33914903591289 79.198223
-5.999112407842027 -11.582067083849909 59.17726400000001
-4.961082455255018 -9.578015196075235 25.861136000000002
-49.94230740000483 -96.42012272898577 17.72762100000002
-5.653102423646356 -10.914049787925013 34.933133
-28.489723774145908 -55.00311871489115 81.700843
-5.653102423646357 -10.914049787925016 60.428574
-5.307092439450688 -10.246032492000127 57.613126
-32.9878469322635 -63.687330749430615 64.182504
-5.307092439450686 -10.246032492000124 37.748581
-5.307092439450687 -10.246032492000126 34.463892
-50.980335140449796 -98.4241703459324 16.163484000000004
-32.9878469322635 -63.687330749430615 70.28264
-5.999112407842023 -11.5820670838499 33.838237
-5.999112407842024 -11.582067083849903 31.492031
-5.307092439450687 -10.246032492000126 52.60788599999999
-23.645592843974683 -45.650893655254826 89.05228899999999
-52.36437286509044 -101.09623525880393 12.253140000000007
-27.45169603370094 -52.99907109794452 86.08042800000001
-53.05639283348177 -102.43226985065371 13.191622000000013
-28.83573375834158 -55.67113601081604 81.075188
-23.645592843974686 -45.65089365525483 88.895875
-5.653102423646356 -10.914049787925014 31.022789000000003
-31.9498169796765 -61.68327886165596 74.97505200000002
-5.653102423646357 -10.914049787925016 27.112446000000002
-23.645592843974683 -45.650893655254826 114.391316
-30.911789239231524 -59.679231244709314 74.662225
-5.999112407842025 -11.582067083849905 59.020849999999996
-27.10568604950527 -52.33105380201963 85.45477300000002
-25.721648324864628 -49.6589888891481 86.86249700000002
-27.797703805754576 -53.66708412304138 82.63932600000001
-29.87376149878655 -57.67518362776267 77.63408600000001
-5.999112407842022 -11.582067083849898 64.808159
-5.999112407842025 -11.582067083849905 28.363756
-29.87376149878655 -57.67518362776267 78.416154
-26.413668293255963 -50.99502348099788 113.60924700000001
-26.413668293255963 -50.99502348099788 86.70608300000002
-29.873761498786543 -57.675183627762664 76.85201700000002
-5.307092439450686 -10.246032492000126 37.435753
-5.653102423646357 -10.914049787925016 34.151064000000005
-14.303336543543836 -27.61445229025102 112.514351
-49.25028964375552 -95.08409240796402 18.196861999999992
-31.9498169796765 -61.68327886165596 71.53395000000002
-26.7596760653096 -51.663036506094734 116.893936
-32.987846932263494 -63.6873307494306 72.78526
-32.9878469322635 -63.687330749430615 71.846777
-5.653102423646354 -10.914049787925011 48.697543
-29.873761498786543 -57.675183627762664 77.321258
-5.307092439450686 -10.246032492000124 36.966512
-5.307092439450689 -10.246032492000129 58.082367
-28.143713789950244 -54.33510141896627 82.170084
-29.527751514590882 -57.00716633183779 78.572568
-6.345120179895659 -12.25008010894676 61.054229
-32.29582696387216 -62.35129615758082 63.55684900000001
-22.953572875583344 -44.314859063405045 115.016971
-4.961082455255018 -9.578015196075237 23.202102
-5.999112407842024 -11.582067083849902 30.709962
-32.29582696387216 -62.35129615758083 70.751881
-27.797703805754576 -53.66708412304138 84.047049
-51.326345124645464 -99.0921876418573 14.755759999999997
-52.0183650930368 -100.42822223370706 13.973690999999993
-32.29582696387216 -62.35129615758083 63.40043500000001
-5.999112407842024 -11.582067083849903 24.453412000000004
-52.7103828492861 -101.76425255472881 11.783899000000014
-50.28831738420049 -97.08814002491064 17.884035000000004
-33.67986468851281 -65.02336107045237 69.813398
-5.3070924394506855 -10.246032492000122 41.971752
-5.307092439450688 -10.246032492000127 20.543069000000003
-27.10568604950527 -52.331053802019625 85.298359
-53.05639283348178 -102.43226985065373 9.124865000000005
-32.641836948067834 -63.019313453505724 72.941673
-5.653102423646356 -10.914049787925013 29.615066
-13.611318787294525 -26.278421969229264 112.201523
-53.05639283348177 -102.43226985065371 10.376175
-32.641836948067834 -63.019313453505724 63.713262000000014
-4.961082455255018 -9.578015196075237 41.50251
-28.143713789950244 -54.33510141896627 83.264981
-31.603809207622863 -61.015265836559095 74.818638
-5.999112407842023 -11.5820670838499 48.384715
-31.257799223427188 -60.34724854063419 68.092847
-54.09442057392674 -104.43631746760033 8.029969000000001
-5.307092439450688 -10.246032492000127 29.145825
-5.653102423646357 -10.914049787925016 52.764300000000006
-32.641836948067834 -63.019313453505724 64.96457200000002
-5.653102423646355 -10.914049787925013 61.679884
-5.653102423646356 -10.914049787925014 20.699482000000003
-5.653102423646356 -10.914049787925014 56.361816
-53.40240281767745 -103.1002871465786 9.281279
-24.68362058441966 -47.65494127220148 88.426634
-31.9498169796765 -61.68327886165596 68.40567500000002
-5.999112407842025 -11.582067083849905 24.140585000000005
-5.307092439450686 -10.246032492000126 18.822517000000005
-5.307092439450687 -10.246032492000126 43.848717
-32.987846932263494 -63.6873307494306 69.65698500000002
-6.34512017989566 -12.250080108946761 33.212582
-29.181741530395215 -56.339149035912904 77.94691300000001
-29.18174153039521 -56.3391490359129 80.762361
-5.999112407842023 -11.5820670838499 54.328438
-5.999112407842023 -11.5820670838499 50.41809400000001
-27.105686049505266 -52.33105380201962 84.203463
-33.33385470431713 -64.35534377452747 70.126226
-5.999112407842026 -11.582067083849907 44.474372
-31.9498169796765 -61.68327886165596 68.24926100000002
-4.961082455255018 -9.578015196075237 23.045688000000002
-5.999112407842024 -11.582067083849903 22.26362
-52.36437286509044 -101.09623525880393 12.09672600000001
-33.33385470431713 -64.35534377452747 72.316018
-32.641836948067834 -63.019313453505724 64.02609000000001
-51.326345124645464 -99.0921876418573 15.537829000000007
-5.9991124078420235 -11.582067083849902 28.989411000000004
-5.999112407842024 -11.582067083849903 43.379475
-30.21977148298221 -58.34320092368755 75.600707
-5.653102423646356 -10.914049787925014 22.732861
-5.653102423646354 -10.914049787925011 41.189683
-31.9498169796765 -61.68327886165596 68.87491600000001
-5.653102423646356 -10.914049787925014 37.279339
-26.7596760653096 -51.663036506094734 85.14194500000002
-32.29582696387216 -62.35129615758083 73.410915
-5.653102423646357 -10.914049787925016 56.831058
-53.05639283348177 -102.43226985065371 12.72238100000002
-5.307092439450688 -10.246032492000127 18.978931
-27.797703805754573 -53.66708412304137 83.734222
-54.09442057392675 -104.43631746760033 7.560728000000003
-4.615074683201386 -8.910002170978382 28.676583
-13.265308803098854 -25.610404673304366 110.480972
-29.527751514590882 -57.00716633183779 78.728982
-5.307092439450686 -10.246032492000126 61.210642
-5.307092439450686 -10.246032492000124 42.28457900000001
-34.02587467270847 -65.69137836637724 49.792439
-22.26155511933404 -42.97882874238331 89.834358
-32.9878469322635 -63.687330749430615 69.187743
-51.326345124645464 -99.0921876418573 14.599346000000011
-4.961082455255017 -9.578015196075233 39.62554500000001
-5.3070924394506855 -10.246032492000122 56.51823
-5.307092439450687 -10.246032492000126 23.984171
-29.527751514590875 -57.00716633183777 79.354637
-32.641836948067834 -63.019313453505724 63.087607000000006
-4.961082455255019 -9.578015196075237 5.527349000000001
-31.257799223427188 -60.34724854063419 75.444293
-5.307092439450686 -10.246032492000124 54.484851
-4.961082455255018 -9.578015196075237 21.950792
-5.653102423646355 -10.914049787925013 42.753820000000005
-51.67235510884113 -99.76020493778218 13.50445
-31.949816979676495 -61.68327886165594 65.59022700000001
-54.09442057392675 -104.43631746760033 8.812038000000001
-5.653102423646356 -10.914049787925013 55.736161
-32.9878469322635 -63.687330749430615 72.628846
-28.489723774145908 -55.00311871489115 81.544429
-29.873761498786543 -57.675183627762664 76.226362
-35.06390241315345 -67.6954259833239 46.66416400000001
-5.307092439450686 -10.246032492000124 29.927893
-31.9498169796765 -61.68327886165596 67.78002
-31.9498169796765 -61.68327886165596 73.880156
-5.307092439450689 -10.246032492000129 39.312718
-4.615074683201386 -8.910002170978382 6.778659
-5.307092439450688 -10.246032492000127 24.296998
-4.961082455255019 -9.578015196075237 31.179203000000005
-50.9803351404498 -98.42417034593241 15.850656000000017
-5.307092439450687 -10.246032492000126 24.922653
-21.91554513513837 -42.31081144645841 89.365117
-5.307092439450686 -10.246032492000126 42.12816500000001
-29.18174153039521 -56.3391490359129 79.511051
-5.653102423646353 -10.91404978792501 47.602647
-5.653102423646355 -10.914049787925013 55.110506
-29.87376149878655 -57.67518362776267 79.66746400000001
-29.527751514590882 -57.00716633183779 79.823878
-29.181741530395218 -56.33914903591291 77.790499
-31.949816979676495 -61.68327886165594 74.50581100000001
-14.303336543543828 -27.614452290251005 111.732282
-5.307092439450687 -10.246032492000126 60.584987
-5.999112407842025 -11.582067083849905 33.525409
-25.37563834066896 -48.990971593223215 87.48815200000001
-5.999112407842025 -11.582067083849905 46.82057799999999
-24.337610600223986 -46.98692397627658 88.113807
-5.653102423646356 -10.914049787925014 30.866376000000002
-13.265308803098863 -25.610404673304384 110.637386
-51.32634512464547 -99.09218764185731 14.442932000000011
-32.641836948067834 -63.019313453505724 51.200163
-30.21977148298221 -58.34320092368755 75.757121
-14.649346527739503 -28.282469586175907 112.67076499999999
-27.797703805754573 -53.66708412304137 82.32649800000002
-5.999112407842025 -11.582067083849905 39.469132
-5.653102423646355 -10.914049787925013 56.674644
-54.09442057392675 -104.43631746760033 7.717141000000004
-27.10568604950527 -52.33105380201963 85.611187
-27.45169603370094 -52.99907109794452 83.57780800000002
-5.307092439450688 -10.246032492000127 44.63078500000001
-4.961082455255021 -9.57801519607524 58.238781
-6.34512017989566 -12.250080108946761 25.704722
-26.413668293255963 -50.99502348099788 85.7676
-12.919298818903187 -24.94238737737948 111.57586800000001
-30.565779255035856 -59.01121394878443 76.539189
-5.653102423646356 -10.914049787925013 22.576447000000005
-5.307092439450686 -10.246032492000126 26.956032
-5.999112407842026 -11.582067083849907 70.908295
-52.36437286509043 -101.09623525880392 11.627485000000018
-5.999112407842024 -11.582067083849903 35.245961
-30.219771482982217 -58.34320092368756 76.69560300000002
-5.653102423646357 -10.914049787925016 57.143885
-5.653102423646356 -10.914049787925013 31.335617
-5.653102423646356 -10.914049787925013 52.451473
-51.32634512464546 -99.09218764185728 16.007069999999995
-4.961082455255019 -9.578015196075237 59.959332
-23.991600616028325 -46.3189066803517 88.27022000000001
-52.71038284928609 -101.7642525547288 10.532589000000005
-5.653102423646356 -10.914049787925014 31.648444
-51.67235510884114 -99.76020493778219 16.78913900000001
-32.9878469322635 -63.687330749430615 65.43381400000001
-34.717892428957775 -67.02740868739899 49.01037000000001
-52.36437286509044 -101.09623525880393 12.565967000000004
-5.307092439450686 -10.246032492000126 20.073827
-53.05639283348177 -102.43226985065371 12.878795000000004
-31.9498169796765 -61.68327886165596 62.618366000000016
-5.653102423646355 -10.914049787925013 29.77148
-33.33385470431714 -64.35534377452748 64.338917
-5.653102423646356 -10.914049787925013 48.541129
-25.37563834066896 -48.990971593223215 87.95739300000001
-5.653102423646356 -10.914049787925014 25.079066999999995
-22.953572875583347 -44.31485906340506 89.208703
-4.961082455255019 -9.578015196075237 54.95409299999999
-27.79770380575457 -53.66708412304136 83.890636
-27.797703805754576 -53.66708412304138 82.013671
-50.2883173842005 -97.08814002491066 18.040449000000002
-5.653102423646357 -10.914049787925016 45.100027
-4.961082455255018 -9.578015196075235 60.11574600000001
-28.489723774145904 -55.003118714891144 81.231602
-52.01836509303679 -100.42822223370706 15.068587000000015
-5.307092439450686 -10.246032492000124 57.76953999999999
-5.653102423646356 -10.914049787925014 25.235481000000004
-31.9498169796765 -61.68327886165596 66.68512300000002
-5.653102423646354 -10.914049787925011 42.440993
-5.653102423646356 -10.914049787925013 52.920714
-51.326345124645464 -99.0921876418573 14.91217400000001
-31.25779922342719 -60.347248540634205 75.131466
-5.653102423646357 -10.914049787925016 48.228302
-26.067658309060295 -50.32700618507299 86.549669
-13.957328771490204 -26.94643926515417 112.04511000000001
-53.40240281767745 -103.1002871465786 9.437693000000014
-5.653102423646355 -10.914049787925013 56.987471
-4.961082455255018 -9.578015196075235 48.853956000000004
-32.9878469322635 -63.687330749430615 51.043749000000005
-32.64183694806783 -63.01931345350571 68.562088
-5.653102423646355 -10.914049787925013 35.715202
-5.653102423646357 -10.914049787925016 35.402374
-4.961082455255014 -9.578015196075228 110.16814500000001
-4.961082455255018 -9.578015196075237 27.268860000000004
-5.999112407842024 -11.582067083849903 25.548308000000002
-21.91554513513837 -42.31081144645841 90.303599
-31.603809207622863 -61.015265836559095 66.05946900000002
-13.957328771490193 -26.946439265154147 111.419455
-29.873761498786543 -57.675183627762664 76.382776
-51.326345124645464 -99.0921876418573 17.10196600000001
-51.326345124645464 -99.0921876418573 16.319896999999997
-33.67986468851281 -65.02336107045237 72.472432
-5.653102423646358 -10.914049787925018 35.871616
-31.9498169796765 -61.68327886165596 73.72374200000002
-32.641836948067834 -63.019313453505724 69.96981200000002
-5.999112407842024 -11.582067083849903 50.730920999999995
-5.653102423646355 -10.914049787925013 27.894515000000002
-52.0183650930368 -100.42822223370706 11.940313000000009
-5.653102423646353 -10.91404978792501 55.892575
-30.219771482982217 -58.34320092368756 77.008431
-26.41366829325596 -50.99502348099787 86.393255
-52.36437286509044 -101.09623525880393 12.409554000000014
-5.307092439450686 -10.246032492000126 26.799618
-53.05639283348178 -102.43226985065373 10.689003000000003
-5.653102423646358 -10.914049787925018 54.797679
-36.10193015359842 -69.69947360027052 46.50775000000001
-53.40240281767744 -103.10028714657858 10.063348
-4.615074683201385 -8.91000217097838 5.214521000000002
-30.565779255035856 -59.01121394878443 75.91353400000001
-28.489723774145908 -55.00311871489115 80.918774
-4.96108245525502 -9.578015196075238 110.32455899999998
-5.653102423646357 -10.914049787925016 40.2512
-5.9991124078420235 -11.582067083849902 55.26691999999999
-5.999112407842025 -11.582067083849905 36.340857
-33.67986468851281 -65.02336107045237 72.159605
-52.36437286509044 -101.09623525880393 13.348036000000011
-28.489723774145908 -55.00311871489115 82.48291200000001
-4.615074683201386 -8.910002170978382 23.827757
-29.181741530395215 -56.339149035912904 80.44953300000002
-5.999112407842025 -11.582067083849905 36.497271
-5.653102423646356 -10.914049787925014 61.52347
-5.307092439450687 -10.246032492000126 42.597407
-50.980335140449796 -98.4241703459324 13.660864000000016
-32.9878469322635 -63.687330749430615 64.495331
-5.999112407842025 -11.582067083849905 62.149125
-5.6531024236463585 -10.91404978792502 58.864436
-32.64183694806783 -63.01931345350571 65.74664100000001
-32.29582696387216 -62.35129615758083 66.21588200000001
-53.05639283348178 -102.43226985065373 10.219761
-5.653102423646357 -10.914049787925016 21.325137
-32.29582696387216 -62.35129615758083 63.86967600000001
-53.74841058973107 -103.76830017167545 8.18638300000001
-5.999112407842025 -11.582067083849905 40.094787
-5.653102423646357 -10.914049787925016 26.330377
-5.999112407842026 -11.582067083849907 32.117686
-52.01836509303679 -100.42822223370706 11.471071000000007
-5.307092439450688 -10.246032492000127 51.51299000000001
-25.72164832486463 -49.658988889148105 87.33173800000002
-28.835733758341576 -55.67113601081604 80.136706
-5.653102423646357 -10.914049787925016 53.70278299999999
-31.257799223427188 -60.34724854063419 73.56732800000002
-21.91554513513838 -42.31081144645843 90.61642700000002
-32.9878469322635 -63.687330749430615 62.77478000000001
-5.999112407842025 -11.582067083849905 28.207342
-32.641836948067834 -63.019313453505724 69.03133
-54.09442057392675 -104.43631746760033 8.342795999999998
-5.307092439450686 -10.246032492000124 29.458652000000004
-31.25779922342719 -60.347248540634205 74.03657
-5.999112407842024 -11.582067083849903 61.367056
-32.641836948067834 -63.01931345350574 65.2774
-5.999112407842021 -11.582067083849896 61.99271099999999
-50.9803351404498 -98.42417034593241 14.130105
-5.653102423646354 -10.914049787925011 57.456712
-5.307092439450689 -10.246032492000129 21.01231
-31.9498169796765 -61.68327886165596 71.064708
-5.653102423646357 -10.914049787925016 7.2479000000000005
-26.067658309060302 -50.327006185073 85.924014
-31.9498169796765 -61.68327886165596 66.372296
-5.653102423646356 -10.914049787925014 44.943613
-52.0183650930368 -100.42822223370706 13.817277
-5.999112407842022 -11.582067083849898 62.461952000000004
-29.873761498786543 -57.675183627762664 78.88539600000001
-5.653102423646358 -10.914049787925018 22.107206
-32.29582696387216 -62.35129615758082 67.623606
-5.653102423646357 -10.914049787925016 23.671343
-31.603809207622856 -61.01526583655908 71.22112200000001
-4.2690646990057175 -8.241984875053493 59.802919
-30.911789239231517 -59.67923124470931 76.069948
-5.653102423646358 -10.914049787925018 21.637965
-27.451696033700934 -52.99907109794451 84.985532
-5.999112407842022 -11.582067083849898 53.54636899999999
-5.307092439450686 -10.246032492000126 38.217822
-5.653102423646357 -10.914049787925016 59.333676999999994
-5.307092439450686 -10.246032492000126 37.904994
-5.999112407842023 -11.5820670838499 31.961271999999997
-5.653102423646354 -10.914049787925011 49.479611
-28.489723774145908 -55.00311871489115 81.388016
-5.999112407842024 -11.582067083849902 28.050928000000003
-30.56577925503585 -59.011213948784416 67.936433
-5.653102423646356 -10.914049787925014 26.486791
-28.835733758341576 -55.67113601081604 80.605947
-5.653102423646357 -10.914049787925016 27.738101
-5.653102423646357 -10.914049787925016 24.609826000000005
-5.999112407842024 -11.582067083849902 34.30747800000001
-5.999112407842025 -11.582067083849905 30.397135000000002
-52.36437286509043 -101.09623525880392 11.314658000000014
-5.999112407842025 -11.582067083849905 40.72044199999999
-5.307092439450686 -10.246032492000124 39.938373000000006
-24.683620584419653 -47.65494127220146 88.739462
-31.603809207622863 -61.015265836559095 66.99795100000001
-5.653102423646356 -10.914049787925013 27.425273
-29.527751514590882 -57.00716633183779 79.041809
-32.9878469322635 -63.687330749430615 65.120986
-5.3070924394506855 -10.246032492000122 43.066648
-4.961082455255019 -9.578015196075237 18.509690000000003
-32.9878469322635 -63.687330749430615 69.344157
-4.961082455255019 -9.578015196075237 7.091486000000001
-29.18174153039521 -56.3391490359129 78.103327
-50.634327368396164 -97.75615732083556 17.414794000000008
-5.307092439450687 -10.246032492000126 23.514929999999996
-5.653102423646354 -10.914049787925011 59.646505
-27.797703805754573 -53.66708412304137 81.85725700000002
-24.337610600223982 -46.98692397627657 88.58304800000002
-4.961082455255019 -9.578015196075237 36.184443
-5.653102423646355 -10.914049787925013 32.274099
-4.269064699005714 -8.241984875053488 45.882095
-5.653102423646355 -10.914049787925013 38.061408
-5.307092439450687 -10.246032492000126 22.420033
-5.653102423646355 -10.914049787925013 47.133405
-28.14371378995024 -54.33510141896626 82.952153
-5.653102423646355 -10.914049787925013 38.530649
-51.32634512464546 -99.09218764185728 15.381415000000013
-5.307092439450684 -10.246032492000118 57.300298999999995
-52.0183650930368 -100.42822223370706 14.286519000000009
-24.683620584419657 -47.65494127220147 87.80097899999998
-50.63432736839616 -97.75615732083554 16.632724999999994
-5.307092439450688 -10.246032492000127 33.994651
-4.961082455255019 -9.578015196075237 23.358516000000005
-5.307092439450686 -10.246032492000126 40.564028
-5.3070924394506855 -10.246032492000122 54.172024
-53.40240281767744 -103.10028714657858 8.968450999999996
-31.9498169796765 -61.68327886165596 66.84153700000002
-5.307092439450687 -10.246032492000126 43.692303
-52.7103828492861 -101.76425255472881 10.845415999999997
-5.653102423646357 -10.914049787925016 53.077128
-34.02587467270847 -65.69137836637724 49.16678400000001
-52.01836509303679 -100.42822223370706 9.906934000000001
-32.64183694806783 -63.01931345350571 69.500571
-26.413668293255967 -50.99502348099789 86.23684200000001
-13.957328771490191 -26.946439265154144 110.7938
-5.6531024236463585 -10.91404978792502 47.289819
-4.961082455255019 -9.578015196075237 51.356576000000004
-30.91178923923153 -59.67923124470933 66.52871000000002
-28.14371378995024 -54.33510141896626 82.795739
-5.307092439450688 -10.246032492000127 51.669404
-32.64183694806783 -63.01931345350571 64.651745
-5.653102423646358 -10.914049787925018 45.412854
-5.653102423646356 -10.914049787925014 21.168724
-31.9498169796765 -61.68327886165596 71.690363
-5.307092439450688 -10.246032492000127 6.153004
-53.40240281767745 -103.1002871465786 7.404314000000004
-4.615074683201382 -8.910002170978375 47.446233
-4.961082455255017 -9.578015196075233 109.698904
-5.653102423646356 -10.914049787925013 36.028029
-5.653102423646356 -10.914049787925014 57.925954
-5.999112407842024 -11.582067083849903 32.899753999999994
-32.9878469322635 -63.687330749430615 68.71850200000002
-4.961082455255018 -9.578015196075237 26.643205
-5.999112407842022 -11.582067083849898 58.39519500000001
-4.961082455255018 -9.578015196075235 53.859196
-5.653102423646356 -10.914049787925013 24.766240000000003
-5.307092439450686 -10.246032492000126 20.855896000000005
-4.961082455255021 -9.57801519607524 41.346097
-5.653102423646358 -10.914049787925018 56.205403
-5.653102423646357 -10.914049787925016 40.876855
-4.615074683201386 -8.910002170978382 34.620306
-49.596297415809154 -95.75210543306088 19.291759
-27.79770380575457 -53.66708412304136 83.421394
-28.143713789950237 -54.335101418966254 83.108567
-50.63432736839616 -97.75615732083554 16.94555200000001
-5.999112407842025 -11.582067083849905 31.804858
-5.999112407842024 -11.582067083849903 34.776719
-31.9498169796765 -61.68327886165596 73.254501
-5.999112407842023 -11.5820670838499 55.423334
-5.653102423646355 -10.914049787925013 32.743341
-5.999112407842025 -11.582067083849905 37.122926
-22.261555119334044 -42.978828742383314 91.085668
-5.307092439450687 -10.246032492000126 18.666104000000004
-5.999112407842025 -11.582067083849905 36.653684
-4.961082455255015 -9.57801519607523 60.27216000000001
-33.67986468851281 -65.02336107045237 50.88733499999999
-50.634327368396164 -97.75615732083556 15.225001
-5.653102423646356 -10.914049787925014 5.99659
-5.999112407842023 -11.5820670838499 48.071887999999994
-5.653102423646357 -10.914049787925016 50.26168
-5.653102423646357 -10.914049787925016 56.048989
-5.307092439450686 -10.246032492000126 50.105266
-5.307092439450688 -10.246032492000127 39.156304000000006
-5.999112407842022 -11.582067083849898 44.161544
-50.2883173842005 -97.08814002491066 15.694241999999992
-5.307092439450686 -10.246032492000124 60.897815
-5.999112407842025 -11.582067083849905 43.535889
-5.653102423646356 -10.914049787925014 19.761
-5.653102423646352 -10.914049787925007 62.305538999999996
-52.0183650930368 -100.42822223370706 9.594106000000007
-5.307092439450686 -10.246032492000126 28.832997
-5.307092439450689 -10.246032492000129 49.948853
-52.0183650930368 -100.42822223370706 11.15824400000002
-5.653102423646357 -10.914049787925016 58.55160899999999
-52.7103828492861 -101.76425255472881 13.035209000000016
-5.307092439450688 -10.246032492000127 5.683763
-5.307092439450687 -10.246032492000126 46.038509
-5.999112407842026 -11.582067083849907 47.915474
-54.09442057392674 -104.43631746760033 6.622245000000015
-5.653102423646358 -10.914049787925018 45.569268
-5.653102423646357 -10.914049787925016 30.084307
-5.653102423646357 -10.914049787925016 55.579748
-4.961082455255018 -9.578015196075235 38.687063
-5.307092439450688 -10.246032492000127 32.430513
-14.649346527739494 -28.282469586175893 111.263041
-5.307092439450685 -10.24603249200012 46.351336999999994
-4.269064699005716 -8.24198487505349 46.194923
-13.611318787294527 -26.278421969229267 110.950214
-31.25779922342719 -60.347248540634205 65.90305500000001
-5.9991124078420235 -11.582067083849902 52.138645
-5.653102423646357 -10.914049787925016 27.581687
-5.653102423646355 -10.914049787925013 33.056168
-5.307092439450688 -10.246032492000127 53.389955
-5.653102423646356 -10.914049787925014 37.592167
-25.029630568615325 -48.32295856812635 87.64456500000001
-5.653102423646353 -10.91404978792501 49.323198
-48.904279659559855 -94.41607511203914 18.353276000000022
-5.653102423646355 -10.914049787925013 50.574507999999994
-5.653102423646356 -10.914049787925014 35.089547
-5.653102423646356 -10.914049787925013 33.368996
-5.653102423646354 -10.914049787925011 39.781959
-5.6531024236463585 -10.91404978792502 54.641265
-5.307092439450686 -10.246032492000126 45.25644
-27.451696033700937 -52.999071097944515 84.672704
-5.653102423646357 -10.914049787925016 54.015609999999995
-29.873761498786543 -57.675183627762664 77.47767200000001
-5.307092439450686 -10.246032492000126 46.976991999999996
-4.961082455255018 -9.578015196075235 19.135345
-5.307092439450689 -10.246032492000129 44.787199
-5.653102423646357 -10.914049787925016 20.230241
-5.307092439450689 -10.246032492000129 44.317958
-5.307092439450688 -10.246032492000127 21.481551
-5.999112407842024 -11.582067083849902 35.558788
-5.653102423646356 -10.914049787925014 59.490091
-5.653102423646356 -10.914049787925013 53.233541
-5.653102423646356 -10.914049787925014 5.840176000000002
-5.653102423646356 -10.914049787925013 30.240721
-4.961082455255016 -9.578015196075231 42.910234
-33.67986468851281 -65.02336107045237 49.636025000000004
-5.307092439450686 -10.246032492000124 40.407614
-5.653102423646357 -10.914049787925016 38.84347700000001
-4.961082455255019 -9.578015196075237 19.604586
-5.307092439450686 -10.246032492000126 32.58692700000001
-5.307092439450686 -10.246032492000126 38.374236
