ply
format ascii 1.0
element vertex 911
property float32 x
property float32 y
property float32 z
element face 0
property list uint8 int32 vertex_indices
end_header
-157.3791518282541 5.821155568832036 129.094208
-125.05199001070758 4.6254353234712955 123.619727
-126.55557658511908 4.681050131780901 124.08896800000001
-142.34326205190135 5.265006596829209 127.21724300000001
-127.30737227554862 4.708857624826381 124.871037
-164.8970943132067 6.099229965942773 133.317379
-116.03045614489596 4.2917459402696 122.994072
-143.0950577423309 5.29281408987469 127.53007100000002
-158.8827384026656 5.876770377141641 130.658345
-161.8899163579362 5.9880001715422075 130.814759
-134.07352387651923 4.959124706672992 125.18386399999999
-176.9258061342889 6.544149143545035 134.099448
-117.53404271930745 4.347360748579204 122.21200300000001
-126.55557658511908 4.681050131780901 124.71462300000002
-146.1022356976014 5.404043884275254 128.937794
-177.67760182471844 6.5719566365905155 134.412275
-147.60582227201292 5.459658692584859 128.624967
-140.83967067104228 5.209391610738248 128.155726
-123.54839862984853 4.569820337380335 124.558209
-167.90427226847723 6.210459760343337 132.066069
-141.59146636147184 5.237199103783729 127.37365700000001
-175.42221955987736 6.488534335235428 133.943034
-158.88273840266558 5.87677037714164 129.250622
-155.1237647569655 5.7377330896955945 129.71986300000003
-145.3504400071719 5.3762363912297735 127.68648400000001
-123.54839862984853 4.569820337380335 125.02745100000001
-117.53404271930744 4.347360748579204 122.05558900000001
-159.6345340930951 5.904577870187121 130.971173
-113.77506907360738 4.208323461133158 122.681244
-131.0663459212487 4.8478949122724275 126.90441600000001
-143.84684862631283 5.320621405138813 128.312139
-116.78224702887793 4.319553255533725 122.52483100000002
-140.83967067104226 5.209391610738247 125.96593300000002
-138.5842884062013 5.125969309383163 127.06082900000003
-109.26430454392533 4.041478858422988 121.899176
-171.6632459141773 6.3494970477893835 133.160965
-139.33608409663077 5.153776802428642 126.435174
-158.88273840266558 5.87677037714164 129.56344900000002
-135.57711045093075 5.014739514982598 123.46331300000001
-159.6345340930951 5.904577870187121 130.189104
-119.78942498414847 4.4307830499342895 122.83765800000002
-76.1853470359493 2.8179511200167675 109.54249
-131.06634592124868 4.847894912272427 126.591588
-72.42637339024922 2.6789138325707214 110.16814500000001
-167.90427226847723 6.210459760343337 131.75324200000003
-134.82531476050121 4.986932021937117 125.65310599999998
-70.92278681583771 2.623299024261116 109.38607600000002
-61.14945725959655 2.2618021480139396 109.073249
-16.041792736985876 0.5933554097868122 102.03463
-22.80381874833893 123.8072284034616 123.15048600000001
-27.845957207716697 151.1821691873394 129.876277
-31.252807588748208 169.67875118159478 131.909655
-31.52535516618563 171.15847528144815 133.78662
-30.02634131217837 163.01998090683605 128.781381
-28.25477900949311 153.40175770220313 129.407035
-31.389080941846625 170.4186108664377 132.53531
-27.5734087590387 149.7024403573186 130.03269
-25.93812155193302 140.82408629786357 128.468553
-8.358774491900634 45.38172812688018 108.76042099999998
-31.797903614863625 172.63820411146892 132.37889700000002
-31.116533364409207 168.93888676658435 131.596828
-22.531271170901515 122.32750430360826 125.34027800000003
-31.252807588748208 169.67875118159478 131.440414
-23.89401080056977 129.72613426320993 125.809519
-21.441079118670675 116.40859844385993 123.776141
-31.116533364409207 168.93888676658435 133.00455200000002
-24.71165527536319 134.16531602310488 127.99931200000003
-23.34891477445435 126.76668133333575 123.932554
-19.805791040324422 107.53023965423748 121.58634800000002
-31.1165333644092 168.93888676658432 134.25586200000004
-24.9842028528006 135.6450401229582 126.74800200000001
-19.53324259164642 106.05051082421666 120.64786600000001
-30.70771156263279 166.71929825172063 132.22248300000007
-28.254779009493113 153.40175770220316 130.501932
-21.986175144786092 119.36805137373409 123.61972700000003
-31.661629390524627 171.89833969645852 133.47379300000003
-10.947980398138727 59.439128361240556 109.22966200000002
-31.661629390524627 171.89833969645852 132.691724
-23.75773744747135 128.986274578367 124.40179600000002
-19.805791040324422 107.53023965423748 122.36841700000001
-17.761681160201746 96.43229234975125 119.55296999999999
-19.124420789870005 103.83092230935291 121.42993400000002
-24.030285024908768 130.46599867822033 126.27876100000002
-27.573408759038692 149.70244035731858 129.094208
-24.71165527536319 134.16531602310488 127.217243
-22.531271170901515 122.32750430360826 124.871037
-31.252807588748215 169.6787511815948 133.317379
-21.577353343009676 117.14846285887036 122.994072
-31.389080941846625 170.4186108664377 130.658345
-30.70771156263279 166.71929825172063 130.814759
-22.94009297267793 124.54709281847201 125.18386400000001
-31.252807588748208 169.67875118159478 134.099448
-21.986175144786095 119.36805137373412 122.212003
-29.61751951040195 160.8003923919723 130.345518
-18.17050296197817 98.65188086461502 120.491452
-22.122449369125093 120.1079157887445 124.71462300000003
-29.344971061723957 159.3206635619515 128.93779400000003
-31.25280758874822 169.67875118159483 134.41227500000002
-27.982231432055695 151.9220336023498 128.155726
-23.621463223132345 128.24641016335653 124.55820900000002
-30.026341312178378 163.01998090683608 132.066069
-26.21066912937044 142.30381039771694 127.37365700000001
-20.350887066439842 110.48969258411165 121.74276200000003
-24.84792949970219 134.9051804381153 126.59158800000002
-20.48716129077884 111.22955699912202 120.80427900000001
-30.843984915731205 167.45915793656354 133.943034
-26.210669129370437 142.30381039771692 129.250622
-22.531271170901515 122.32750430360826 124.24538200000002
-31.252807588748215 169.6787511815948 131.284
-23.62146322313235 128.24641016335656 125.027451
-24.030285024908768 130.46599867822033 125.49669200000001
-9.585240768470474 52.040498401638914 108.604007
-22.803818748338934 123.80722840346161 124.08896800000001
-30.843984915731212 167.45915793656357 130.971173
-23.75773744747135 128.986274578367 126.90441600000001
-26.75576515548586 145.2632633275911 128.312139
-21.713626696108093 117.88832254371329 122.68124400000002
-30.843984915731205 167.45915793656354 132.84813800000003
-30.843984915731212 167.45915793656357 133.630207
-20.62343464387726 111.969416683965 122.52483100000003
-8.767597164917635 47.60132137191141 108.134766
-27.300861181601277 148.22271625746524 128.624967
-24.030285024908768 130.46599867822033 125.96593300000002
-24.439106826685183 132.68558719308405 127.06082899999998
-25.529298878916016 138.60449305283234 127.686484
-19.805791040324422 107.53023965423749 121.117107
-19.942065264663427 108.2701040692479 121.89917600000001
-24.84792949970219 134.9051804381153 126.435174
-28.799875035608537 156.36121063207733 127.84289799999999
-9.857789217148472 53.52022723165972 109.85531700000001
-29.48124528606296 160.06052797696194 129.563449
-28.39105323383212 154.14162211721361 129.719863
-25.256751301478605 137.12476895297905 126.12234700000002
-20.89598309255526 113.44914551398578 123.46331300000001
-29.344971061723957 159.3206635619515 130.189104
-18.851873212432587 102.35119820949959 120.335038
-20.48716129077884 111.22955699912204 123.306899
-21.713626696108097 117.8883225437133 122.83765800000002
-29.072423484286542 157.84093946209816 131.12758700000003
-11.08425462247773 60.17899277625098 109.073249
-9.17641896669405 49.820909886775134 110.16814500000001
-19.396969238548007 105.31065113937375 122.05558900000001
-31.389080941846625 170.4186108664377 131.753242
-20.48716129077884 111.22955699912202 121.27352099999999
-20.623434643877257 111.96941668396498 120.960693
-31.116533364409207 168.93888676658435 133.160965
-8.767597164917635 47.60132137191141 109.69890400000001
-18.851873212432587 102.35119820949959 120.178624
-17.35285935842533 94.2127038348875 119.709383
-24.030285024908768 130.46599867822033 125.653106
-11.220528846816729 60.91885719126139 108.447594
-9.721514992809471 52.780362816649316 108.916835
110.34970072362394 46.81967243237762 123.15048600000001
148.4400095682867 62.98080174456086 131.90965499999996
129.74113124443056 55.04715668494715 125.49669200000001
154.67297048546766 65.6253507239651 133.78662
131.81878783528208 55.92867426381461 128.781381
58.40837007838506 24.78176865407331 108.916835
115.19756167459066 48.87654490446929 126.12234700000002
151.90276612535246 64.4499958307409 132.53531000000004
126.97092688431532 53.871801791722916 128.468553
147.74746179902297 62.68696443020409 130.03269
121.43051816408487 51.52109200527449 125.340278
151.90276612535246 64.4499958307409 132.378897
153.2878705192534 65.03767421665252 131.59682800000002
152.59531832230294 64.7438350236967 131.753242
149.82511396218771 63.568480130472494 131.284
147.05490960207246 62.39312523724827 131.440414
117.96776603470592 50.05189979769352 125.80951900000001
117.27521383775543 49.7580606047377 123.77614100000001
96.49867892304779 40.94289796625653 119.86579700000001
145.66980520817145 61.80544685133663 127.99931199999999
120.04541819787063 50.93341549796191 123.932554
102.73163984022875 43.58744694566079 121.586348
126.27837911505162 53.57796447736618 123.30689900000002
121.43051816408489 51.521092005274504 126.74800200000001
150.5176661591382 63.86231932342831 132.22248300000004
120.04541819787063 50.93341549796191 123.61972700000001
152.59531832230294 64.7438350236967 133.47379299999997
153.98041828851714 65.33151153100928 132.691724
60.486026669236544 25.663286232940763 108.60400700000001
106.1943963972945 45.05664103184083 122.36841700000001
108.96460075740973 46.23199592506505 121.429934
152.59531832230294 64.7438350236967 133.630207
138.05174432477628 58.5732213646198 129.40703500000004
126.97092688431532 53.871801791722916 126.27876100000002
131.8187878352821 55.92867426381462 129.09420800000004
124.89327472115063 52.99028609145454 127.21724300000002
154.67297048546766 65.6253507239651 132.848138
147.05490960207243 62.393125237248256 127.84289800000002
153.2878705192534 65.03767421665252 133.317379
90.26572243355358 38.29835086545133 120.022211
112.42735731447544 47.70119001124508 122.99407200000002
130.43368344138108 55.34099587790297 127.530071
153.28787051925337 65.0376742166525 133.00455200000002
77.10725282992796 32.71541559228608 108.29118
154.67297048546766 65.6253507239651 134.255862
148.4400095682867 62.98080174456086 130.814759
119.35286600092016 50.6395763050061 125.183864
156.05807487936866 66.21302910987674 134.09944800000002
144.28470524195725 61.21777034402407 130.34551800000003
100.65398767706404 42.7059312453924 120.49145200000001
142.20705307879248 60.33625464375565 129.87627700000002
130.43368344138108 55.34099587790297 128.937794
156.05807487936866 66.21302910987674 134.41227500000002
129.04858347516685 54.75331937059039 128.155726
108.27204856045921 45.93815673210922 124.558209
151.90276612535246 64.4499958307409 132.066069
134.5889921953973 57.10402915703882 126.59158800000002
146.36235740512194 62.09928604429245 130.50193200000004
93.72847899061935 39.767544951631386 120.80427900000001
156.75062264863237 66.50686642423351 133.943034
147.05490960207246 62.39312523724827 131.12758700000003
126.27837911505162 53.57796447736618 124.24538200000002
115.89010944385443 49.17038221882606 124.08896800000001
104.80929200339351 44.468962645929196 122.05558900000001
120.73797039482112 51.227254690917725 122.68124400000002
135.28153996466105 57.39786647139559 126.904416
137.35919212782576 58.279382171663975 129.250622
133.89643999844682 56.81018996408301 127.37365700000002
126.27837911505162 53.57796447736618 125.65310600000002
130.43368344138108 55.34099587790297 128.31213900000003
110.34970072362394 46.81967243237762 122.52483100000002
63.256231029351795 26.838641126164987 108.134766
139.43684871867725 59.160899750531435 128.62496700000003
120.04541819787062 50.9334154979619 125.96593299999999
124.89327472115063 52.99028609145454 127.06082900000001
131.81878783528208 55.92867426381461 127.68648400000002
101.34653987401455 42.99977043834822 121.89917600000001
153.9804182885172 65.3315115310093 133.16096500000003
152.59531832230294 64.7438350236967 130.971173
144.97725743890774 61.511609536979876 129.56344900000002
126.27837911505162 53.57796447736618 123.46331300000003
147.747461799023 62.68696443020411 130.18910400000001
113.1199050837392 47.995027325601846 122.83765800000002
132.5113356045458 56.22251157817136 126.43517400000002
146.36235740512197 62.099286044292455 130.658345
116.58266164080491 49.46422141178188 124.87103700000002
50.79030919498987 21.54954316735648 105.162905
111.04225292057444 47.11351162533344 121.74276200000003
114.50500947764019 48.58270571151348 124.71462300000002
50.09776142572613 21.255705852999714 105.632146
50.097761425726134 21.255705852999718 107.97835199999999
43.86480050854518 18.61115687359547 105.78856000000002
139.43684871867723 59.16089975053143 129.719863
83.34020931942216 35.359962693091276 120.178624
63.948778798615535 27.13247844052175 108.447594
52.17541358889087 22.13722155326812 105.319319
19.625513464458574 8.32680202753332 105.475732
48.02010483487464 20.374188274132262 103.44235400000001
55.25415371736838 -77.3340869854348 123.15048600000001
65.31324496096398 -91.41285907568802 125.49669200000002
74.49763395543536 -104.26739198627456 128.78138100000004
39.0721355454181 -54.68562498363379 108.91683500000002
89.36759455951733 -125.07948934837009 132.53530999999998
39.0721355454181 -54.68562498363379 108.760421
90.67964933126429 -126.91585007460523 132.37889700000002
94.17846392000376 -131.8128146202125 131.75324200000003
64.43853991571844 -90.18861598255103 125.80951900000001
53.06739390037591 -74.27348316606272 120.960693
62.25178289484729 -87.12801607664926 123.776141
66.18794721008817 -92.63709825535464 127.999312
60.939725326978994 -85.29165143694381 123.932554
92.42905662563402 -129.36433234740883 134.255862
55.69150623999115 -77.94620853200327 123.30689900000002
77.12174349892928 -107.94011343874482 126.74800200000003
95.49051869175071 -133.6491753464476 132.22248300000004
87.18083474252484 -122.01888552899798 130.50193200000004
56.56620848911535 -79.17044771166992 123.619727
81.93261285941566 -114.67343871058715 130.345518
95.05316896524928 -133.03705771334944 133.473793
28.138342052698334 -39.38261371371395 109.229662
92.86640914825679 -129.97645389397732 132.691724
21.57806260172087 -30.200802255597665 108.604007
81.05791061029149 -113.44919953092052 130.03269000000003
61.377077849601754 -85.9037729835123 124.40179600000002
53.504746422998664 -74.88560471263118 122.368417
42.133597611534796 -58.970467982672545 119.55297
60.93972532697899 -85.2916514369438 121.586348
56.128855966492594 -78.55832616510146 121.429934
93.74111139738098 -131.20069307364398 133.630207
81.05791061029149 -113.44919953092052 129.407035
68.81205954970343 -96.30982362129524 126.278761
90.24229680864154 -126.30372852803676 129.094208
69.68676179882762 -97.53406280096189 127.21724300000001
50.005931834259215 -69.98864016702396 120.02221100000001
56.566208489115354 -79.17044771166994 122.99407200000002
69.68676179882762 -97.53406280096189 127.530071
95.05316896524927 -133.0370577133494 133.00455200000002
25.076877190460316 -35.09776680120489 108.29118
88.93024203689455 -124.4673678018016 130.814759
71.43616909319734 -99.98254507376548 125.18386399999999
93.30376167087958 -130.58857544054584 134.09944800000002
65.75059748358673 -92.02498062225649 122.21200300000001
86.74348221990209 -121.40676398242954 129.876277
63.12648514397148 -88.3522552563159 124.71462300000002
78.43379827067623 -109.77647416497994 128.937794
93.74111139738099 -131.200693073644 134.412275
61.37707784960175 -85.90377298351228 124.55820900000002
87.61818726514763 -122.6310070755665 132.066069
67.06265225533369 -93.8613413484916 127.373657
45.1950624737728 -63.25531489518159 120.80427900000001
86.74348221990209 -121.40676398242954 130.18910400000001
94.17846392000375 -131.81281462021246 133.943034
79.74585583854454 -111.61283880468541 129.250622
70.56146684407315 -98.75830589409885 124.245382
72.31087413844287 -101.20678816690246 128.155726
64.43853991571844 -90.18861598255103 125.02745100000001
76.24704124980508 -106.71587425907816 126.90441600000001
57.8782632608623 -81.00680843790505 122.68124400000004
95.05316896524927 -133.0370577133494 132.848138
92.86640914825679 -129.97645389397732 133.31737900000002
57.87826326086231 -81.00680843790506 122.52483100000002
24.639527463958878 -34.48564916810671 108.134766
52.63004137775312 -73.6613616194942 120.647866
74.06028143281259 -103.65527043970607 128.31213900000003
82.8073179046612 -115.89768180372413 128.624967
88.93024203689455 -124.4673678018016 131.44041400000003
58.31561578348507 -81.61892998447355 125.965933
91.55435437650982 -128.1400931677422 131.596828
49.56857931163644 -69.37651862045546 121.11710700000003
50.44328435688197 -70.60076171359243 121.89917600000001
62.68913262134872 -87.74013370974743 126.435174
73.18557638756707 -102.43102734656911 127.84289800000002
61.81443037222452 -86.51589453008077 126.12234700000003
64.43853991571844 -90.18861598255103 125.34027800000001
58.31561578348508 -81.61892998447355 123.46331300000003
51.31798660600619 -71.8250008932591 120.49145200000001
91.99170410301126 -128.75221080084037 131.90965500000001
62.68913262134871 -87.74013370974741 127.060829
86.74348221990209 -121.40676398242954 131.28400000000002
46.069764722897 -64.47955407484824 120.33503800000001
56.56620848911536 -79.17044771166995 122.837658
45.632412200274246 -63.86743252827977 121.27352099999999
90.24229680864154 -126.30372852803676 131.12758700000003
51.31798660600619 -71.8250008932591 121.74276200000001
69.6867617988276 -97.53406280096188 128.468553
13.268378652495002 -18.570512438148064 105.78856
91.11700185388709 -127.52797162117375 130.658345
45.632412200274246 -63.86743252827977 120.178624
27.700989530075564 -38.77049216714546 109.386076
24.202174941336118 -33.87352762153824 107.97835200000002
71.43616909319734 -99.98254507376548 127.68648400000001
67.50000477795646 -94.4734628950601 126.59158800000002
46.06976472289699 -64.47955407484824 119.70938300000002
79.30850331592175 -111.0007172581169 129.719863
90.24229680864153 -126.30372852803673 130.971173
91.11700185388706 -127.52797162117372 133.160965
60.50237560047756 -84.67953380384564 124.088968
69.24941207232618 -96.92194516786371 125.653106
21.140712875219428 -29.588684622499485 108.447594
78.87115079329901 -110.38859571154845 129.56344900000002
68.81205954970342 -96.30982362129524 124.871037
38.63478302279534 -54.073503437065305 109.07324900000002
45.632412200274246 -63.86743252827977 119.86579700000001
26.82628448483004 -37.5462490740085 105.944974
16.767193241234462 -23.467476983755304 105.475732
-98.64372737012964 -109.93953652878535 131.90965500000001
-71.51316115442164 -79.70221728874152 125.496692
-84.5760255366233 -94.26092562433614 128.78138100000004
-23.783459308052347 -26.50693118648589 108.91683499999999
-100.65339906063052 -112.17933808656377 132.53531
-29.310055653902715 -32.66638457539395 108.760421
-103.66790499032766 -115.53903863326609 132.378897
-104.17032371597999 -116.0989899176934 131.59682800000002
-97.63889313093338 -108.81963753986146 131.753242
-102.16065202547908 -113.85918835991492 131.44041400000003
-65.98656480857127 -73.54276389983346 125.809519
-53.426115939913544 -59.54400326873543 123.776141
-99.14614609578196 -110.49948781321264 133.00455200000002
-82.06393512047009 -91.4611727821304 127.99931200000002
-71.51316115442167 -79.70221728874155 123.93255400000001
-76.5373387746197 -85.30171939322231 126.74800200000001
-44.382591726605284 -49.46489446876703 120.33503800000001
-93.61954974993158 -104.34003442430456 130.501932
-98.1413086444773 -109.37958524435804 130.345518
-29.310055653902722 -32.66638457539396 108.60400700000001
-96.63405567962872 -107.69973497100688 130.03269000000003
-50.41160679810799 -56.18429914210239 124.401796
-42.372920036104375 -47.22509291098856 121.586348
-41.36808579690813 -46.10519392206469 121.429934
-97.63889313093335 -108.81963753986145 133.63020700000004
-101.15581778628285 -112.73928937099109 133.473793
-86.08327850147188 -95.94077589768729 129.407035
-75.53250453542346 -84.18182040429845 126.278761
-83.06877257177476 -92.58107535098499 129.09420800000004
-72.01557666796558 -80.2621649932381 123.619727
-73.52283284492256 -81.94201884651999 127.21724299999998
-72.5179953936179 -80.82211627766539 124.87103699999999
-106.17999540648091 -118.33879147547187 133.31737899999996
-43.377757487409035 -48.344995479843156 120.022211
-55.938206356066786 -62.3437561109412 122.99407200000002
-79.55184791642527 -88.66142351985536 127.53007100000002
-30.8173086187513 -34.34623484874513 108.29118
-94.62438398912781 -105.4599334132284 130.814759
-57.947878046567666 -64.58355766871962 125.183864
-48.40193510760708 -53.944497584323926 122.212003
-41.36808579690813 -46.10519392206469 120.49145199999998
-86.58569722712421 -96.5007271821146 128.93779400000003
-25.29071227290092 -28.18678145983705 110.011731
-43.88017621306137 -48.90494676427045 120.96069300000002
-68.49865201261609 -76.34251316210849 124.55820900000002
-100.65339906063053 -112.1793380865638 132.066069
-48.40193510760709 -53.94449758432394 121.74276199999998
-36.846323690254 -41.065639522080495 120.804279
-96.63405567962872 -107.69973497100688 130.189104
-99.64856160932588 -111.0594355177092 131.12758700000003
-62.97205566676575 -70.18305977320044 124.24538200000003
-81.56151960692617 -90.90122507763382 128.155726
-67.49381777341985 -75.22261417318462 126.904416
-44.8850104522576 -50.02484575319431 122.68124399999999
-78.04459173946826 -86.98156966657346 127.373657
-48.40193510760708 -53.944497584323926 122.524831
-28.305221414706477 -31.54648558647009 108.134766
-39.35841410640722 -43.86539236428623 120.647866
-58.95271228576392 -65.70345665764351 125.96593300000002
-76.5373387746197 -85.30171939322231 127.686484
-46.392263417106186 -51.70469602654548 121.11710700000003
-46.392263417106186 -51.70469602654548 121.89917600000001
-77.03975750027205 -85.86167067764963 126.12234700000002
-78.04459173946829 -86.98156966657349 125.340278
-104.17032371597999 -116.0989899176934 132.848138
-44.382591726605284 -49.46489446876703 119.865797
-96.63405567962872 -107.69973497100688 131.284
-48.90435383325941 -54.504448868751226 123.306899
-103.16548947678373 -114.97909092876951 132.22248300000004
-47.89951959406317 -53.38454987982736 122.83765800000002
-104.17032371597999 -116.0989899176934 129.87627700000002
-81.05910088127385 -90.34127379320653 127.06082900000001
-47.39710086841084 -52.82459859540007 121.273521
-54.93336890476212 -61.223853542086594 125.02745100000001
-63.47447439241805 -70.74301105762771 122.368417
-84.5760255366233 -94.26092562433612 127.842898
-79.55184791642526 -88.66142351985536 128.46855300000004
-104.67274244163235 -116.65894120212072 132.691724
-34.334236486209186 -38.26589025980547 107.978352
-55.938206356066786 -62.3437561109412 123.46331300000003
-94.12196526347549 -104.89998212880111 129.56344900000002
-98.1413086444773 -109.37958524435804 130.65834500000003
-102.66307075113141 -114.41913964434222 133.160965
-64.98172735726664 -72.42286133097889 126.59158800000003
-94.62438398912782 -105.45993341322843 129.71986300000003
-71.01074242876933 -79.14226600431425 124.714623
-94.62438398912782 -105.45993341322843 129.250622
-75.03008580977115 -83.62186911987116 126.435174
-57.947878046567666 -64.58355766871962 123.15048600000001
-58.45029356011158 -65.1435053732162 122.055589
-53.92853466556587 -60.10395455316272 124.08896800000001
-46.89468214275851 -52.26464731097277 108.447594
-74.5276670841188 -83.06191783544386 125.653106
-79.04942919077295 -88.10147223542809 128.312139
-100.65339906063053 -112.1793380865638 130.971173
-78.04459173946829 -86.98156966657348 128.62496700000003
-44.88501045225762 -50.02484575319432 120.17862400000003
-27.80280268905416 -30.986534302042813 110.32455900000001
-110.39128508073621 62.06440504308257 128.78138100000004
-25.796744902927518 14.5034965692936 108.91683500000002
-118.26054492466339 66.48867576323555 132.53531000000004
-82.19310502146665 46.21076888515292 125.340278
-27.76405881577313 15.60956366004666 108.76042099999998
-127.44135017218416 71.65032611531774 132.37889700000002
-129.40866408502978 72.75639320607081 131.753242
-119.57209032825703 67.22605539516479 131.284
-99.89893862216661 56.165377416211925 125.809519
-74.32384517753944 41.78649816499993 120.96069299999999
-82.84887772326344 46.57945870111752 124.24538200000002
-101.86625253501222 57.27144450696499 127.999312
-84.16041893431226 47.316835975905974 123.932554
-132.0317506996722 74.23115011278847 132.222483
-113.67014439717539 63.90785176576484 130.345518
-126.78557747038737 71.28163629935314 130.03268999999997
-80.22579110862105 45.104701794399865 124.401796
-59.896870893278674 33.675336356623184 122.36841700000001
-65.79881263181548 36.99353762888235 121.586348
-117.6047722228666 66.11998594727095 129.407035
-95.96431079647543 53.95324323470582 126.27876100000002
-98.58739741111783 55.428000141423496 129.09420800000004
-91.37390607644264 51.37241688009435 126.748002
-101.86625253501222 57.27144450696498 127.21724299999998
-95.96431079647543 53.95324323470582 127.842898
-85.47196433790585 48.05421560783518 124.871037
-67.11035803540906 37.73091726081156 120.02221099999998
-76.29115909038505 42.892565255752984 122.99407200000003
-91.37390607644262 51.37241688009434 127.53007100000002
-114.98168560822421 64.64522904055329 130.658345
-29.075604219366724 16.346943291975872 108.29118
-120.88363153930578 67.9634326699532 130.814759
-76.94693179218186 43.2612550717176 125.18386399999999
-59.24109819148189 33.30664654065858 122.21200300000001
-67.11035803540906 37.73091726081156 120.49145200000001
-111.70283048432982 62.801784675011795 128.937794
-86.78350554895464 48.791592882623625 124.558209
-74.32384517753945 41.786498164999934 121.742762
-127.44135017218419 71.65032611531775 130.50193200000004
-55.9622388750427 31.463199817976324 120.80427900000001
-124.16249085574498 69.80687939263548 131.12758700000003
-111.04705778253302 62.43309485904719 128.15572600000002
-90.06236486539385 50.635039605305906 125.02745100000001
-29.731372728618727 16.715630750799715 108.604007
-93.34122418183304 52.47848632798817 124.088968
-106.45665725504502 59.852270861576464 128.312139
-88.09505095254822 49.528972514552834 125.49669199999998
-80.22579110862105 45.104701794399865 122.68124399999999
-99.24316592036983 55.79668760024733 129.250622
-92.68545148003625 52.10979651202357 127.37365700000001
-26.45251760472433 14.872186385258216 108.13476600000001
-128.0971186814362 72.0190135741416 132.066069
-116.29323101181781 65.3826086724825 128.62496700000003
-98.58739741111782 55.42800014142348 125.96593300000002
-119.57209032825699 67.22605539516476 131.596828
-55.30646617324588 31.094510002011706 121.11710700000002
-99.24316592036982 55.796687600247324 126.122347
-69.07767194825465 38.83698435156461 123.463313
-54.65069766399388 30.725822543187864 120.64786599999998
-129.40866408502978 72.75639320607081 130.189104
-64.48727142076667 36.25616035409391 120.335038
-83.50465042506023 46.948148517082124 123.30689900000002
-80.88156381041783 45.473391610364466 122.837658
-93.99699269108504 52.847173786812014 126.435174
-99.89893862216661 56.165377416211925 127.060829
-73.01230396649066 41.04912089021149 121.27352100000002
-86.12773703970265 48.4229054237998 123.619727
-113.01437169537864 63.53916194980025 129.876277
-88.09505095254823 49.52897251455284 124.714623
-99.89893862216661 56.165377416211925 128.468553
-31.042918132212318 17.453010382728923 109.386076
-99.89893862216663 56.16537741621193 127.686484
-63.83149871896988 35.8874705381293 121.899176
-31.69869083400911 17.821700198693527 109.69890400000001
-83.50465042506025 46.94814851708213 126.59158800000002
-71.70075856289706 40.311741258282275 122.52483099999999
-67.11035803540906 37.730917260811566 123.77614100000001
-67.76613073720586 38.09960707677617 123.15048600000001
-111.70283048432984 62.80178467501181 130.971173
-92.68545148003624 52.109796512023564 125.65310599999998
-31.69869083400911 17.821700198693527 108.447594
-113.01437169537861 63.53916194980024 129.563449
-125.47403206679378 70.54425666742392 131.440414
-81.53733231966984 45.84207906918831 126.90441600000001
-63.1757260171731 35.5187807221647 120.17862399999999
-127.44135017218419 71.65032611531775 132.69172400000002
-118.91631762646018 66.85736557920015 129.719863
-46.78143782006669 26.301551823034885 121.429934
-27.764058815773115 15.609563660046652 109.073249
-65.14304412256347 36.62485017005851 122.055589
-29.075604219366717 16.346943291975872 109.54249000000002
-124.8182635575418 70.1755692086001 131.90965500000001
-18.583257760797135 10.447915665105231 105.944974
26.152996170396843 86.67143844642891 130.501932
15.286521874697048 50.65977263524718 128.781381
17.24248772033691 57.141874046846944 123.93255399999998
9.418625727230106 31.21347300511569 108.91683500000002
20.719759717273266 68.66560784317194 125.34027799999998
8.549307727996018 28.33253955603444 108.760421
17.45981617805594 57.862103955616384 125.80951900000001
31.36890416580138 103.95703914091641 127.99931200000002
20.937088174992304 69.3858377519414 122.99407199999999
17.025157873165227 56.42163953340969 124.40179599999999
17.45981617805595 57.8621039556164 121.74276200000001
35.715494161971826 118.36170638632265 130.345518
9.418625727230104 31.213473005115684 109.229662
35.063506009909425 116.20100745067869 130.03269000000003
30.499586166567283 101.07610569183514 126.435174
12.026579724932374 39.85627335235944 127.686484
13.982545570572242 46.33837476395922 121.586348
17.025157873165227 56.42163953340968 124.714623
13.765215723400555 45.618140250521954 121.429934
28.108962016036706 93.15353985802868 129.407035
19.41578202369581 64.34420536721616 126.278761
27.239644016802618 90.27260640894742 129.094208
14.851863569806328 49.21930821304046 125.027451
30.716916013738974 101.79634020527241 127.21724300000001
18.546464024461716 61.4632719181349 123.15048600000001
33.542199858612925 111.15937506595345 129.563449
21.371747869335675 70.82630677881593 125.96593300000004
8.331977880824335 27.612305042597182 108.29118000000001
26.587655864740213 88.11190747330345 130.814759
19.633111870867488 65.06443988065341 125.183864
15.069192027525357 49.939538121809896 122.212003
15.069192027525357 49.939538121809896 122.368417
17.025157873165227 56.42163953340968 124.55820899999999
35.063506009909425 116.20100745067869 128.93779400000003
5.941353730293746 19.689739208790677 106.10138700000002
12.678567876994776 42.016972288003416 123.61972700000001
17.24248772033691 57.141874046846944 120.80427900000001
11.157261725698286 36.97533990327819 109.54249
35.28083585708111 116.92124196411595 130.189104
33.542199858612925 111.15937506595345 128.15572600000002
19.63311187086749 65.06443988065342 125.496692
9.41862572723011 31.2134730051157 108.604007
16.37316972110282 54.26094059776568 122.05558900000001
8.98396603288673 29.773003978241135 109.386076
13.765215723400555 45.618140250521954 126.90441599999998
19.633111870867495 65.06443988065344 124.24538200000002
15.286521874697048 50.65977263524718 121.89917599999997
18.54646402446172 61.463271918134915 122.68124400000002
17.025157873165224 56.421639533409675 127.37365699999998
16.590499568274506 54.981175111202965 122.524831
8.549307727996014 28.332539556034433 108.134766
16.807828025993544 55.70140501997243 120.647866
15.069192027525366 49.939538121809925 126.748002
17.677146025227636 58.582338469053674 123.306899
22.45839571574145 74.42747474133445 128.31213900000003
17.025157873165227 56.42163953340969 121.11710700000002
13.982545570572235 46.3383747639592 124.088968
15.721181569040416 52.10024166212171 127.530071
22.24106586856976 73.70724022789717 127.842898
35.9328240091435 119.08194089975991 128.624967
10.939931878526604 36.255105389840935 109.855317
28.32629186320839 93.87377437146594 126.12234699999999
8.331977880824335 27.61230504259718 109.07324900000002
15.938510026759447 52.820471570891144 120.491452
21.806406174226385 72.26677120102262 131.284
32.672881859378826 108.27844161687216 129.876277
18.546464024461716 61.4632719181349 120.335038
28.54362171038007 94.59400888490319 125.653106
13.982545570572237 46.33837476395921 121.273521
15.069192027525366 49.939538121809925 122.83765800000002
17.677146025227636 58.582338469053674 123.46331300000001
22.02373602139808 72.98700571445991 127.06082900000001
35.9328240091435 119.08194089975991 128.468553
24.84901986627203 82.35004057514092 129.719863
28.543621710380073 94.5940088849032 126.59158799999999
14.634533722634645 48.4990736996032 124.87103699999999
13.330556029057183 44.17767122364741 109.69890400000001
38.10611831250241 126.28427222012914 130.658345
33.75952831633195 111.87960497472287 129.250622
8.983966032886734 29.773003978241146 108.447594
17.677146025227636 58.582338469053674 123.776141
32.45555201220715 107.55820710343492 131.12758699999998
13.982545570572237 46.33837476395921 130.971173
90.2839296316348 -6.6880117622442965 122.681244
126.29606891801005 -9.35570259175894 128.78138100000004
63.27482516685337 -4.6872436401083135 123.932554
102.28797606042654 -7.577242038749176 125.34027800000001
104.53873356667708 -7.743972626763909 125.809519
105.28898766762451 -7.799549607875399 127.99931200000003
112.04126498296779 -8.299741727239327 126.748002
100.78747265512347 -7.466088431845935 124.401796
58.02305605340492 -4.298205482967362 121.74276200000001
33.26471389146577 -2.464168304165848 109.22966199999999
34.014963195821444 -2.5197449299576014 108.604007
75.27887159564513 -5.576473916613195 122.368417
73.77836819034204 -5.465320309709954 126.43517400000002
80.53064550568531 -5.965512429073882 127.68648400000001
58.02305605340492 -4.298205482967362 121.586348
104.53873356667708 -7.743972626763909 124.71462300000002
124.04531141175954 -9.188972003744208 129.407035
76.02912569659254 -5.632050897724684 126.27876100000002
61.02406766060288 -4.520513052093584 125.02745100000001
68.52659907689358 -5.076282152569001 127.21724300000001
69.27684838124927 -5.131858778360756 123.46331299999999
65.52558746969561 -4.853974583442779 129.563449
67.77634497594616 -5.020705171457512 122.994072
59.52356425529977 -4.409359445190341 127.53007100000002
90.2839296316348 -6.6880117622442965 125.96593300000002
33.26471389146577 -2.464168304165848 108.29118
102.28797606042657 -7.577242038749178 125.183864
124.04531141175956 -9.18897200374421 128.937794
59.52356425529977 -4.409359445190341 122.21200300000001
91.78443783352965 -6.799165724467274 124.55820900000002
70.7773565831441 -5.243012740583732 123.61972700000001
50.520529433705974 -3.742436737811681 120.960693
100.78747265512347 -7.466088431845935 129.09420800000004
72.27785998844722 -5.354166347486977 123.150486
54.271795141851314 -4.020321288049389 120.80427900000002
40.01698641021732 -2.9643600682100417 109.54249
86.53266872008118 -6.410127567326321 122.83765800000002
109.79050747671731 -8.133011139224598 128.155726
64.7753333687482 -4.798397602331291 125.49669200000001
57.27280674904926 -4.2426288571756094 122.05558899999998
97.03620694697811 -7.188203881608226 123.30689900000002
36.2657254986637 -2.6864758732920677 109.38607600000002
63.274825166853375 -4.6872436401083135 124.24538200000002
86.53266872008118 -6.410127567326321 121.89917600000001
56.52255264810184 -4.187051876064121 127.373657
86.53266872008118 -6.410127567326321 122.52483099999998
122.5448032098647 -9.07781804152123 128.62496700000003
69.27684838124925 -5.131858778360755 128.31213900000003
55.022044446207005 -4.0758979138411435 121.11710700000003
193.81882768166778 -14.35762271943903 129.87627700000002
48.26977192745543 -3.5757061497969476 124.088968
51.27078353465338 -3.7980137189231686 126.12234700000002
87.28291802443685 -6.465704193118074 120.491452
71.52761068409148 -5.29858972169522 120.647866
61.024067660602874 -4.520513052093584 120.335038
56.52255264810183 -4.18705187606412 121.273521
91.03418373258224 -6.743588743355786 121.429934
58.02305605340493 -4.298205482967363 127.060829
67.77634497594617 -5.020705171457513 124.871037
69.27684838124927 -5.131858778360756 127.84289800000002
101.5377267560709 -7.521665412957425 126.904416
59.523564255299775 -4.409359445190341 128.468553
67.02609087499873 -4.965128190346023 126.591588
37.76622890396681 -2.797629480195311 109.698904
33.26471389146576 -2.4641683041658475 108.916835
121.794553905509 -9.022241415729477 129.250622
72.27785998844719 -5.3541663474869745 123.77614100000001
47.51951782650803 -3.52012916868546 125.653106
49.02002123181113 -3.6312827755887027 120.178624
32.51445979051835 -2.408591323054359 108.447594
8.634628131265776 -59.058787232777156 122.68124400000002
11.46429746468598 -78.41304737705045 123.15048600000003
9.831795899412596 -67.24712788000282 123.93255399999998
4.4989567106610195 -30.77178577989947 108.916835
10.811297116898578 -73.94668148188686 125.340278
4.3901237832330375 -30.027394636797947 108.13476600000001
4.825457580359594 -33.00497348661987 108.76042099999998
7.002126565992394 -47.892867735729546 127.530071
10.593629870432862 -72.45788967740658 125.809519
27.57164726256383 -188.5834600613235 128.312139
9.178794855820323 -62.78075722570064 124.24538200000002
10.484796247200004 -71.71349377516646 123.463313
8.634628131265778 -59.05878723277716 125.49669200000001
4.934290507787582 -33.74936462972142 127.99931199999999
8.85229468192662 -60.54757427811884 122.99407199999999
8.199294334139218 -56.081208382955225 124.401796
8.961128305159479 -61.291970180358966 121.742762
6.4579591456329775 -44.170892983667486 108.604007
8.090460710906362 -55.33681248071511 122.368417
13.858633696784496 -94.7897334306404 126.435174
5.587291551379858 -38.215735284023616 127.686484
10.267129696539158 -70.22470672982476 124.714623
9.831795899412597 -67.24712788000284 121.429934
8.743461058693761 -59.803178375878694 126.27876100000002
8.090460710906358 -55.33681248071509 121.586348
8.852294681926619 -60.54757427811883 120.960693
10.1582960733063 -69.48031082758463 125.965933
4.281290160000179 -29.282998734557815 108.29118
9.069961928392338 -62.036366082599116 125.18386400000001
9.396462102286039 -64.26954903018091 122.212003
8.308127957372076 -56.82560428519536 124.558209
10.484796247200004 -71.71349377516646 123.61972700000001
5.587291551379859 -38.21573528402362 110.011731
14.838134218465601 -101.48928227338581 126.90441599999998
7.437460363118956 -50.87044658555149 120.80427900000001
5.804958102040703 -39.7045223293653 109.54249
5.369624304914141 -36.72694347954335 109.38607600000002
6.131458971739274 -41.93771003608567 127.37365699999998
8.416960884800064 -57.56999542829692 121.899176
9.069961928392337 -62.0363660825991 122.52483100000002
14.07630024744534 -96.27852047598206 126.74800200000003
11.464297464685979 -78.41304737705043 123.306899
3.9547899861064746 -27.049815786975994 106.101387
8.852294681926619 -60.54757427811883 124.08896800000001
5.587291551379857 -38.21573528402361 109.855317
8.634628131265778 -59.05878723277716 126.12234700000002
5.0431241310204395 -34.49376053196155 109.073249
12.008464885045399 -82.13502212911251 127.84289800000002
8.308127957372077 -56.825604285195375 120.64786600000001
7.54629329054694 -51.61483772865302 125.65310600000001
11.355463841453124 -77.66865147481033 121.27352099999999
9.722962276179743 -66.50273197776272 122.837658
10.267129696539158 -70.22470672982476 123.77614100000001
13.423299899657934 -91.81215458081843 127.060829
9.28762847905318 -63.52515312794076 125.027451
6.457959145632977 -44.17089298366748 126.591588
11.137797290792278 -76.17986442946865 124.87103699999999
5.587291551379855 -38.2157352840236 109.698904
7.8727941602455145 -53.848025435373415 127.21724299999998
7.655126913779798 -52.35923363089315 120.491452
7.7639605370126565 -53.10362953313329 122.05558900000001
4.281290160000178 -29.282998734557808 108.44759400000001
-54.36388888726892 -20.729621057874137 122.68124400000002
-85.2932021509906 -32.52334951734381 123.93255400000001
-35.38453868987366 -13.492560840704353 125.809519
-68.42266764350605 -26.090406721269446 124.24538200000002
-92.32259377615884 -35.203743205869216 122.994072
-63.502096202347886 -24.21413216749496 124.401796
-85.2932021509906 -32.52334951734382 121.742762
-41.00805019236852 -15.636875106062481 109.229662
-166.13117887582916 -63.34786665345294 126.43517400000002
-81.07557077116914 -30.91511467515297 121.58634799999999
-57.87858469985307 -22.06981790213685 124.71462300000002
-57.17564463851634 -21.8017781905532 123.15048600000001
-97.24316521731699 -37.080017759643695 125.965933
-32.57278293862624 -12.420403708025296 108.29118
-55.06682894860563 -20.997660769457784 125.183864
-61.39328051243716 -23.410014746399536 122.21200299999998
-83.18438646107985 -31.71923209624839 122.36841700000001
-84.59026208965388 -32.25530980576017 124.55820899999999
-19.919884305062514 -7.595697467797266 106.101387
-63.502096202347914 -24.21413216749497 123.61972700000001
-36.08747875121038 -13.760600552287999 110.011731
-84.59026208965389 -32.25530980576017 120.96069300000002
-83.18438646107987 -31.719232096248394 120.80427900000001
-74.0461791460009 -28.23472098662757 125.02745099999999
-31.869842877289546 -12.152363996441657 108.604007
-35.38453868987366 -13.492560840704353 109.38607600000002
-90.91671365348544 -34.66766378270194 121.89917600000001
-180.89289319930361 -68.97669031477638 126.904416
-52.255073197358215 -19.925503636778725 120.64786600000001
-63.5020962023479 -24.214132167494963 123.30689900000002
-87.40201784090132 -33.32746693843924 121.117107
-87.40201784090132 -33.32746693843924 121.429934
-55.06682894860562 -20.997660769457777 124.08896800000001
-51.55213313602152 -19.657463925195085 122.52483099999999
-64.20503626368463 -24.482171879078614 126.12234700000002
-35.38453868987365 -13.492560840704352 109.073249
-64.2050362636846 -24.482171879078606 125.340278
-43.11686588227924 -16.440992527157903 106.257801
-52.255073197358215 -19.925503636778725 122.83765800000002
-90.21377359214874 -34.399624071118296 125.65310599999998
-62.799156141011196 -23.946092455911323 121.27352099999999
-87.40201784090132 -33.32746693843924 123.46331300000001
-87.40201784090131 -33.32746693843923 125.496692
-64.20503626368462 -24.48217187907861 124.87103700000002
-69.82854776617945 -26.626486144436726 122.055589
-83.88732652241659 -31.98727180783204 123.77614100000001
-38.19629444112108 -14.564717973383415 108.916835
-32.57278293862624 -12.420403708025296 108.44759400000001
-16.405188492478405 -6.255500623534571 105.944974
-27.492274098194894 41.65150785354463 122.681244
-107.06230376242283 162.20216523564807 124.08896799999997
-105.81902266990934 160.31856215486874 123.932554
-15.05945787394473 22.815469017454536 108.760421
-21.27586598606981 32.23348843549958 123.463313
-28.735555190708375 43.53511093432393 122.994072
-106.64787584839908 161.5742962040054 124.40179600000003
-15.059457873944732 22.81546901745454 109.229662
-22.104719164559576 33.489222484636265 121.58634800000002
-16.302738966458218 24.69907209823385 108.29118
-23.348002906630732 35.37282957956412 122.21200299999998
-24.59128399914421 37.256432660343414 122.368417
-76.80911638028718 116.36780219455949 123.61972700000001
-21.690293900093533 32.861357467142206 110.011731
-102.91803257085864 155.92348696166752 124.245382
-25.83456509165769 39.14003574112271 123.150486
-20.861438072046102 31.60561940385698 120.804279
-21.275865986069814 32.23348843549959 109.54249
-25.420137177633976 38.5121667094801 122.83765800000002
-13.81617413187358 20.931861922526696 108.60400700000001
-18.78930115148518 28.46627825979244 109.38607600000002
-24.176856085120498 36.6285636287008 121.89917600000001
-20.861438072046088 31.605619403856963 122.524831
-22.933574992607017 34.74496054792151 121.11710700000002
-14.64502995992102 22.187599985811932 106.10138700000002
-18.374875887019137 27.83841324229838 109.855317
-20.447010158022383 30.977750372214363 109.073249
-22.104719164559583 33.48922248463628 121.273521
-45.72707317010409 69.2777010901857 123.30689899999999
-23.34800290663073 35.37282957956412 121.74276199999998
-21.275865986069807 32.23348843549958 120.960693
-20.447010158022376 30.977750372214352 110.637386
-22.519147078583302 34.1170915162789 121.429934
-10.50075611879918 15.908917697682861 134.412275
-15.888311052434501 24.07120306659123 108.916835
-15.473883138410775 23.443334034948602 108.44759399999998
-92.97177853163547 140.85465428713604 123.77614100000001
-24.176856085120495 36.628563628700796 122.05558900000001
-10.500756118799181 15.908917697682865 134.25586199999998
21.610344367295028 22.363730187411623 108.760421
25.79251986959937 26.69170585222719 109.22966200000002
12.200451158229152 12.625786670954506 134.41227500000002
36.247958625360205 37.51164501426607 120.804279
106.29939661783897 110.0052356705488 121.11710700000003
11.677678384881673 12.08478884816362 106.101387
123.55087140040379 127.85813615260193 121.273521
33.111328669750826 34.265664995032296 106.25780099999999
12.72322393157662 13.166784493745382 134.255862
22.133117140642504 22.904728010202508 109.38607600000002
22.65588991398998 23.445725832993393 108.91683500000002
108.91325714233864 112.71022132574748 120.96069300000003
21.392849864300075 -13.091046018920396 108.760421
23.31794013740932 -14.269077254389625 109.229662
14.975894594928898 -9.16428276551782 134.41227500000002
22.03454662200317 -13.483723097410147 110.01173100000001
29.734895406780502 -18.195840507792205 111.10662700000002
22.034546622003166 -13.483723097410145 109.54248999999999
22.034546622003152 -13.483723097410136 108.604007
24.601329550262285 -15.054428900870835 110.324559
22.034546622003155 -13.48372309741014 109.073249
24.601329550262278 -15.054428900870832 110.7938
24.60132955026228 -15.054428900870834 110.637386
22.67624337970624 -13.876400175899885 110.48097199999998
23.317940137409327 -14.269077254389629 109.698904
23.959632792559198 -14.661751822381088 109.386076
27.168112478521405 -16.625134704331526 110.95021400000002
19.467763693744036 -11.91301729394945 108.447594
22.034546622003152 -13.483723097410136 110.168145
23.959632792559187 -14.661751822381083 109.85531700000001
22.03454662200316 -13.483723097410142 108.916835
-6.908885221079591 -20.168384063958275 109.54249000000002
-5.689870613149288 -16.609842561879002 133.943034
-5.933673846476283 -17.32155177232747 108.76042099999998
-6.421278754425594 -18.744965643061317 134.255862
-6.908885221079591 -20.168384063958275 109.855317
-6.908885221079595 -20.16838406395829 109.073249
-6.908885221079591 -20.168384063958275 109.229662
-6.665081987752592 -19.456674853509796 109.38607600000002
-7.3964901290289085 -21.591797934692135 110.168145
-5.202265705199975 -15.186428691145158 133.78662000000003
-7.15268689570191 -20.880088724243656 110.7938
-7.640293362355901 -22.3035071451406 110.32455900000001
-6.908885221079588 -20.168384063958268 108.604007
-7.396490129028909 -21.59179793469214 110.011731
-7.152686895701907 -20.880088724243645 108.916835
-6.421278754425601 -18.744965643061335 109.698904
-7.152686895701909 -20.880088724243652 111.106627
-7.152686895701912 -20.88008872424366 108.44759400000001
-15.929589267131673 -46.50157934892086 108.29118
-7.640293362355901 -22.3035071451406 110.480972
-5.446067379822292 -15.898133351430527 134.099448
-7.640293362355904 -22.30350714514061 110.63738599999999
-7.152686895701909 -20.880088724243652 110.950214
-5.933673846476284 -17.321551772327478 134.412275
-20.440237521741768 2.2764455437027213 134.255862
-15.954124324486262 1.776823541484029 133.943034
-20.440237521741793 2.276445543702724 108.76042099999998
-19.69255039547242 2.1931750325421095 109.855317
-21.935606994100183 2.442986033651457 109.073249
