ply
format ascii 1.0
element vertex 835
property float32 x
property float32 y
property float32 z
element face 0
property list uint8 int32 vertex_indices
end_header
-38.800549470506816 1.435158545462656 44.593079238032466
-165.76232910110858 6.131233355498707 601.7444734925774
-11.325534303800609 0.41890997833380905 57.88410620770768
-49.61585268403343 1.8351960459743646 180.42563348256473
-36.86094602446474 1.3634163021598389 33.26672090438581
-53.176966419254505 1.9669148715634657 397.0881913490451
-76.99584748144585 2.8479299903247726 560.1953215935205
-174.906216514518 6.469448363770124 406.00014204055975
-174.7037418938447 6.461959212557987 392.19806617177517
-171.9206596832072 6.359018293632146 604.7831612875523
-52.918328774460875 1.9573483568834076 314.2456790571104
-55.301859716564174 2.045510634135032 370.9793609142927
-48.3055995163447 1.7867322727549326 183.87159550635687
-173.4144606975818 6.414271152683281 400.90100426580517
-52.45804676906179 1.9403234007323793 404.005702709738
-57.54251387323701 2.128388170774553 388.90578684631754
-15.281961047574741 0.565250680419497 461.17692136400694
-52.86982625790824 1.9555543410239191 303.5749207458785
-52.46221312767746 1.9404775064152198 241.6260169461364
-172.27833671844988 6.372248087040987 402.176218629352
-55.65218391172416 2.058468459970678 287.80066361050706
-113.93213976276229 4.214133207254248 577.9159569170096
-50.985917889314 1.885872152731411 234.2417519274112
-39.0256511266106 1.4434846276899376 38.51247777984716
-28.78023562441741 1.064526189975935 520.842950678228
-53.485818120758836 1.9783387087189561 284.3690537920801
-54.02715256304783 1.9983616403889015 199.51890581465855
-54.10376772452882 2.0011954895279462 269.7057375999499
-52.605821403367464 1.9457893034610922 259.2596180556133
-53.85218445103098 1.991889902628195 374.2223494788604
-51.80268619192009 1.9160828591555341 247.1393611871928
-72.80763009096248 2.6930157929684584 404.0342310683126
-57.38660236446384 2.122621300531597 344.78526165782085
-178.69863269340684 6.609722626927667 606.825957188807
-56.62839907177605 2.094576802462673 336.5212517616583
-138.0258371333741 5.105313258699353 589.8721635901069
-49.59511904939264 1.8344291482541188 236.830526598078
-54.62748972948268 2.020566970631009 247.32794376222225
-53.11989158712197 1.9648037820509803 373.5629053260088
-56.010328090630075 2.071715532135345 364.7929627929389
-50.71562305436442 1.8758744607536937 143.94452612693618
-55.56281207159705 2.055162765545406 274.7921756095844
-49.997441189335255 1.8493102791929048 206.70534586709715
-48.60284354365608 1.79772676411408 122.2867284066198
-57.454943510444544 2.12514910957037 362.29440874195546
-30.333440046851564 1.121976268135296 20.285444264990797
-49.776790921603954 1.841148845357183 121.03099979025777
-172.32397601298285 6.3739361977624 392.37017210421135
-90.86452370036444 3.360905952300905 567.344354592573
-175.97715556206813 6.509060362742702 605.2364417663074
-174.2173430036215 6.443968242498711 394.03782755445843
-48.75875521504902 1.8034936403720319 390.8102432363533
-53.38345387640227 1.9745524499663623 202.01511873570607
-53.93846598970922 1.995081292679098 249.0102351728444
-54.616975775152596 2.020178079452679 387.0308463209755
-56.55808263644738 2.091975931226942 321.275449338981
-50.818397377914145 1.8796758875558746 147.08761908823138
-109.64330158018996 4.055497238129534 577.177408651798
-49.451609306622835 1.8291209957536034 220.7127271786458
-54.48111092738291 2.0151526970814095 342.95174299801624
-52.31168731819963 1.9349098429482632 226.25684481590224
-179.39847484359433 6.6356084573095275 608.1951464912253
-142.21345051238944 5.260205114819997 590.4687878049757
-92.31656403036789 3.414614163045314 567.8819893549679
-12.258069678348438 0.4534026886173538 188.7027334312494
-55.26815147010259 2.0442638301948284 360.3375267630109
-48.19126840724032 1.7825033824303744 127.25949711810888
-39.820127397952106 1.4728707942660002 39.84735743265465
-49.462103053327056 1.8295091394902772 145.14988771030187
-116.64223099796965 4.314374328791655 399.59583056046307
-53.6953432000183 1.9860886429877098 225.17528143956693
-32.52421967149735 1.2030090406718237 537.2126010773944
-57.32221705612586 2.120239810405182 330.3061718676539
-15.28188192145747 0.5652477536948779 458.9188068099262
-173.04484693703176 6.40059984250307 405.12341488517785
-53.36593836746972 1.9739045845967806 266.01405109329613
-19.787378873655857 0.7318975187302545 526.5141815630635
-55.90891792267051 2.067964562854495 337.39833227554635
-49.55610294776951 1.832986016844404 148.28650536750104
-28.033475259298108 1.0369049440389821 533.6885044277885
-57.31496843995978 2.1199716978764807 328.7811931435249
-52.57848376923362 1.9447781363571384 194.44604698911192
-57.332913944982636 2.120635467983803 332.59331744435804
-82.84517306525555 3.064285421146154 561.6770127648796
-52.198859907733485 1.9307365715770421 315.1227873268411
-55.54003834777759 2.0543204088056815 271.72868314633075
-54.54311813804111 2.0174462258966153 361.20361176526626
-110.35279990766841 4.081740232148116 576.2829345092405
-48.673218617110685 1.800329804262589 140.64859217144448
-54.82497327259313 2.0278715113746553 271.1004825386816
-54.228009622804606 2.0057909610985365 212.6702831094491
-146.39402662489823 5.414836675833961 591.8161796011805
-53.533850222274836 1.980115324820736 292.77055963791406
-10.669155076362427 0.39463175881946627 72.48043660148588
-55.58489188793866 2.0559794559669937 277.8546193597707
-56.695989002044605 2.097076825460695 353.2734137350958
-174.02589600816108 6.43688698217411 390.8443181534633
-10.776997549923635 0.3986206468534577 518.4875888128
-56.47333541231589 2.088841292553616 305.24803966646397
-137.312228204042 5.078918221334537 588.487959736478
-53.467346724616675 1.9776554868991156 281.31229597136087
-146.4138880538032 5.415571312322543 593.359142478744
-133.78994082511417 4.9486355088362 586.1785880217993
-51.934375935926205 1.9209538123775711 196.94182343101878
-49.364875485254544 1.8259128766260133 104.02953500948755
-51.78379337843103 1.9153840499093593 244.83907290010504
-55.92744164139168 2.0686497199870413 341.96728928976074
-51.57279786632407 1.9075797271256127 222.56372454040445
-47.70701170869866 1.7645916479680088 105.5741494193202
-51.369972521422106 1.9000776032911622 205.61016997184225
-50.96185860666183 1.884982245614961 133.4791438427225
-47.44658953360019 1.754959126905269 234.18354958652364
-88.67976060795641 3.280095719851383 565.3915652039481
-102.44741986879215 3.7893352566323144 573.0938630254369
-52.14565403210288 1.9287685874087217 302.93174206632744
-159.54715442415755 5.901345862386027 597.1245052690648
-50.12853693077156 1.8541592613893834 171.70300437386717
-173.23325633902937 6.40756874802148 397.7122118126798
-54.63046699708447 2.0206770940983088 392.34440820246044
-53.146141091123496 1.965774701290425 188.06402313619458
-50.693848725556805 1.8750690697351022 166.843428877937
-48.825409137001415 1.8059590422022633 229.30447668684053
-101.72471975660544 3.762603953700639 572.4533025463968
-34.87918469547118 1.290114718930085 29.869284398952985
-51.06432375848906 1.8887722367430189 185.49828724841134
-51.38582339209818 1.9006638968569551 117.13421111839409
-75.52792202518604 2.7936342189657926 558.8687777774569
-51.224925242957696 1.894712580268936 265.6501495290308
-83.57846968788698 3.0914086688498585 563.0935321423773
-55.0100390363316 2.0347167420718066 300.1547933028372
-57.39293821999998 2.122855651780216 346.30855140462705
-55.918268479922645 2.068310422187117 339.68298289944124
-55.7177484566296 2.0608935678153992 298.5007876935526
-48.93412668163452 1.8099802974512518 116.49660696789194
-103.1777601361975 3.8163491543777317 575.2601046257297
-50.996110460134574 1.8862491565448363 407.97453808654393
-51.79014523625702 1.9156189930522514 245.60591375995023
-49.63641789432392 1.835956713998153 108.03498707667929
-40.23395381074806 1.4881774463821955 42.487763730670935
-36.52035059859791 1.3508183250010402 31.493299588273665
-44.980013729298534 1.6637251781111744 70.60761811474671
-55.735292483673824 2.061542488015704 301.55601395654764
-52.192529217671996 1.9305024113895084 313.5995073735693
-174.78846229426023 6.465092859073065 414.9960570323454
-175.42610507083677 6.488678052897497 415.5550701852165
-48.07423267712688 1.778174453317542 224.07819876180974
-173.81083343038114 6.428932226364667 408.0703581547885
-53.07474523141359 1.9631339041993627 232.25744475203953
-51.34777908353126 1.8992567102245201 287.03664712932357
-55.18843755097295 2.041315363902665 338.2735198461851
-57.30762405871524 2.119700043179625 327.25604745496184
-50.17838452133449 1.8560030289788476 129.75003638983293
-56.70450863111405 2.097391950339854 355.5564475273046
-50.24570954247653 1.8584932534920053 399.72721314073056
-41.74929288633321 1.54422695736277 61.93055992919286
-49.356977749144974 1.8256207543849077 125.22738854661296
-137.30376778095766 5.078605286372187 587.7182779564434
-173.30249175555542 6.410129634427266 409.8997516306553
-56.025169054611446 2.072264471172844 369.3545801678886
-50.99964737520086 1.8863799803076755 235.7768768651987
-86.4948258463991 3.1992791376864598 564.1937128912385
-117.50187834826077 4.34617104965491 579.5340349394291
-50.74593468143324 1.8769956302012492 169.18070790855535
-23.249114146891156 0.859940523979176 10.034603196456835
-53.51250365287431 1.9793257558092259 288.952509586681
-174.70414649750282 6.461974178077946 413.404726731799
-82.84740691041833 3.064368046831057 562.4367751069078
-55.9423480538536 2.069201079839385 345.7737320753456
-55.92440334660443 2.0685373392401947 341.20588953450607
-152.65206355175457 5.646309562067843 594.961920353114
-55.84527089533506 2.065610380338518 322.9206094310864
-56.779404530915585 2.10016220725856 377.61071725601175
-27.085890773834954 1.0018555957586441 14.773365049101482
-145.04084782126114 5.3647851649641245 594.4537287651341
-64.49044878106474 2.385379071479883 553.3760222314432
-53.62619052645624 1.9835308170868262 178.54751081562605
-173.00125203890437 6.398987350117268 404.3270349322812
-34.92417223836434 1.2917787225976507 27.701227245576284
-44.826045946016954 1.6580302025781484 89.48484743079507
-160.24048632581614 5.926990891054075 597.7253107976068
-68.17705583758188 2.5217396563975063 555.2262000953157
-52.440605947208375 1.9396782978958371 395.6647078227617
-55.841694701195784 2.0654781037174583 322.1582068153957
-163.70240549559568 6.055040698286488 600.7243371183333
-85.03734456655432 3.145369676553415 563.6450831650232
-48.16999236021313 1.7817164219073551 113.55058760288915
-55.61155782375471 2.0569657782274104 281.6812445778237
-52.9049512384587 1.956853547264143 311.19777177387715
-50.979061609357174 1.8856185519730606 398.8802148064729
-162.3057171983764 6.0033798539825804 598.7509824244657
-175.08373916033744 6.476014588878729 398.5837736303789
-55.52838226580888 2.0538892724977607 270.19653675196656
-60.05771849290539 2.2214208069811106 551.5835768423825
-70.38578426131774 2.6034363208826385 556.4785517342532
-51.163310422853286 1.8924335652341822 256.4699700058112
-44.32212067995783 1.6393909652031975 63.004098091797445
-50.767681438136236 1.8778000013801193 145.51655717037005
-48.19003506733731 1.7824577635325645 238.6409942323414
-29.11703981494036 1.0769839365484177 18.211330370386946
-128.14540902041938 4.739855010487818 583.5339420176526
-24.609507524057946 0.9102588882053262 11.84044456846155
-55.11030761389367 2.0384254860945936 319.99011513246995
-62.274857434993635 2.3034285605474527 552.1051014155413
-105.3224347315893 3.8956765895511127 573.3601147758258
-49.5303733303794 1.8320343272221482 106.43382458164011
-51.42708088722418 1.9021899331503191 169.7695797200476
-50.529414494082424 1.8689869601854314 268.8374011779375
-35.97341559394072 1.330588239178594 30.951892888730335
-53.1901520486544 1.967402582922423 403.1555870379619
-52.295077292602954 1.9342954696854942 224.71787752661342
-169.16867833114955 6.257227736326727 602.4018196967154
-47.306259049723536 1.7497685691458336 403.09940220991996
-48.40452123068587 1.7903911988682462 91.96170458630205
-172.5546995104951 6.38247022121342 396.35813377798354
-56.03239424684209 2.072531717294714 371.6349782859801
-55.20902407349111 2.0420768202252293 343.60198713553694
-56.61506208313252 2.094083492613104 333.47341971352654
-171.203861644878 6.332505297189636 602.6352193538497
-93.04356195088516 3.4415044337348317 568.5304435579644
-49.11186127871025 1.8165543622338007 109.08059473911261
-51.73094153057076 1.9134291605550782 238.70146259678356
-52.83491616976595 1.9542630832452543 149.59764806453515
-23.51366118441469 0.8697256158595712 10.790116488151309
-121.7752319481055 4.504234273508546 581.7631037291892
-49.46351490557889 1.829561361220428 375.55988963440643
-51.9462444941797 1.9213928077792415 197.71550038463963
-56.7073139201135 2.0974957126456713 356.31739195477616
-56.604829923358636 2.0937050244795743 331.1871176775587
-55.60101303804622 2.05657574665502 280.15078020591636
-98.83082432485914 3.6555642644379134 569.8855861895096
-56.06228212338834 2.0736372130162035 381.5136915512674
-36.01935777430422 1.3322875530709393 36.04398874427464
-51.85434237048075 1.9179935229759946 160.20575651414504
-169.15443626330216 6.256700949318419 601.6256743687776
-52.26091591386004 1.9330319052438374 221.63875140331928
-53.24043317475566 1.9692623861670795 249.92197513534907
-48.6315746252267 1.798789472189073 101.8742925707549
-161.6134499752988 5.97777420575075 598.1513010966839
-50.91315845815623 1.8831809197253306 368.5433952352098
-173.34803339797833 6.411814133182813 389.4905609310039
-95.21628366698744 3.521869278571544 568.9488284599153
-170.05403086123997 6.289975242912221 384.31835407828135
-52.419844864416085 1.9389103849206597 237.01901080967085
-46.304667457087604 1.7127216006659762 93.79957377344022
-41.76480453759548 1.5448007038474743 49.99526202130173
-172.62187175244813 6.3849547947148855 387.3382343408513
-138.71340826648887 5.130745207493098 588.9465017974479
-55.92134567419988 2.0684242417521306 340.4444525229283
-50.24710344925139 1.8585448114530863 400.4850061563193
-49.57884673422359 1.8338272662579094 149.07008303119414
-56.70168615707096 2.097287552391949 354.7954738679811
-49.441097441037314 1.8287321818339632 114.66654490880289
-47.79597960280222 1.767882401197975 156.69731200188463
-172.67015826130796 6.386740820860557 388.1368030930384
-65.9669066870237 2.4399904419287353 554.7242403841445
-140.12175456226086 5.1828372589957254 590.1731024760022
-52.58862348166819 1.945153185039376 256.96181851310627
-54.21710148117573 2.0053874896815738 211.8976716021439
-55.55718479555024 2.05495462330473 274.0264007416314
-53.17186978100404 1.9667263566058657 394.812546723965
-55.09239786259604 2.0377630384495817 316.1780554500834
-54.385596911275925 2.0116198152460227 319.34595704092334
-52.17631352519408 1.929902623758976 309.79056706693393
-170.10146058143664 6.291729578074431 385.1165381107942
-127.45635953244906 4.714368380159066 585.2162008653656
-56.66028392420586 2.095756162524835 344.1380953731513
-53.27231919496203 1.9704417894230761 253.75635013567825
-53.3206573181203 1.9722297246835019 259.88747047446475
-55.89616669499707 2.0674929191893816 334.3515976873126
-44.896476906828404 1.6606353098937168 98.56089781876322
-42.31349061205355 1.5650955584121864 50.53720319087893
-6.816663883242609 0.2521354351184784 12.099968560629017
-58.26865492693228 2.155246747589661 388.0420351517948
-172.19342732423388 6.369107450004602 411.96317488430515
-52.005337935221064 1.9235785617968686 276.2211863457739
-56.07103693163281 2.073961036725852 384.55234414386535
-57.837176560792855 2.139287183284574 550.2981422237355
-63.75183229178082 2.358059052024457 552.700843530766
-54.271702783751294 2.0074070880391766 177.57737870206114
-47.10564574790216 1.7423482645787223 84.1408584586295
-50.00371956402003 1.8495425043341318 125.79128993181794
-33.47276373230503 1.2380938818195182 28.02397107650754
-51.331808682876165 1.8986659954720901 283.9840954633203
-172.19032062042447 6.368992538938105 400.5830567487003
-11.969753326202017 0.44273841498653627 50.83401934832671
-53.497650942770434 1.9787763823049909 209.74692739277998
-53.17245288434198 1.9667479244895618 242.24727624309554
-77.72564346537928 2.8749237560595216 559.3397065692826
-174.43830372531693 6.452141159436236 420.00283670802804
-58.577905280456434 2.166685330125326 550.9795161004837
-49.51653241614423 1.8315223781231613 227.62510228635074
-42.357228454012706 1.566713338018516 59.75300439250899
-49.285120171732295 1.8229628792339787 123.64273293983547
-32.52437839953433 1.2030149117200892 537.9662190048425
-56.755018877911795 2.099260228323399 370.00875366420087
-182.0794011378838 6.734770823139673 608.2210289818588
-163.6893061661667 6.054556178999355 599.9493529550808
-49.61948274402052 1.8353303149907088 239.8963733941436
-69.65486760806074 2.5764011037205696 558.8402351677319
-100.28211067500956 3.7092445869012565 571.9332038756246
-55.615035216486696 2.057094400372286 549.7613787157397
-55.23959298141662 2.043207506002453 351.9717866361387
-45.23359275659873 1.6731045841491383 104.15039342341977
-47.52784645605156 1.7579646659562744 83.06393543550396
-165.748829276852 6.130734022669445 600.9690769057515
-35.51516275738669 1.313638338124669 540.8005252607171
-52.22878910283597 1.931843595593359 133.82013827473747
-31.485672423703353 1.1645951527790446 22.41919804310412
-44.27148523605095 1.6375180564166485 83.03524500134657
-50.14427831087281 1.8547415051070106 172.4805998198805
-54.63422537815774 2.0208161094676274 393.86235092477244
-174.07602580520606 6.4387411880447285 425.0033087317484
-53.52540600034671 1.9798029891083477 291.24349989147896
-28.779992487476243 1.0645171968028075 519.3361393488128
-47.26924732492326 1.7483995758234634 108.21260039761903
-19.037083353728004 0.704145514139049 527.293461075604
-52.92735829268275 1.9576823415927578 177.17925558065548
-53.82852563270125 1.9910148079255472 365.86697000097575
-53.870439381492496 1.9925651177941188 381.05612967346264
-8.522843778260393 0.3152437851250322 544.1094248787305
-51.203856845847305 1.8939333003214918 194.01829043297795
-33.60187403189991 1.2428694262976108 26.835676454390214
-119.64616666621487 4.4254841971603796 581.4172753823727
-52.7994351015166 1.952950705998151 209.14073378415827
-54.408901473201226 2.012481806677891 324.6796003291033
-90.1337691108582 3.333876729568811 565.9330900148996
-44.08501306547875 1.6306208054050078 87.32692567245797
-106.05196607792406 3.9226605668442964 575.5249703300855
-42.84231446183127 1.5846557470540985 79.52084657165477
-50.72877694425007 1.8763609981283722 168.40180199637854
-174.27488455352875 6.446096595014216 416.8228274948622
-172.57811796052465 6.383336425149704 603.8241905846787
-174.66171784189743 6.460404822785416 412.6089232851238
-48.248578808156225 1.7846231851842211 247.0593665711114
-49.645342688266815 1.8362868251555575 151.41945727240235
-45.09086369591841 1.6678253075946419 67.89190661019015
-49.26259158886653 1.8221295897919942 162.5497451791315
-66.70229682221714 2.467191124681283 553.8825849407398
-51.5390427929996 1.9063311911487923 219.48511339187735
-56.71010214459619 2.0975988437674626 357.0783024814757
-46.60219278145421 1.7237264966683088 136.56475673350047
-54.39236772386608 2.011870254728996 320.8700650806654
-41.44695758719001 1.5330441495396443 45.43405338983457
-57.39607652248608 2.1229717316216776 347.07014248016054
-8.439430051363885 0.31215846997877617 18.02801682679582
-51.26068498054488 1.8960352649649546 162.74880834300347
-25.037030052640716 0.9260721336012386 534.5842949766653
-142.92529680677805 5.286534955669913 591.8508070335425
-51.36708038424087 1.8999706286362426 290.85118416062437
-51.906514125678335 1.919923256995883 260.92703341548435
-44.40021978110971 1.6422797024489493 111.77302410920514
-56.07534011459358 2.0741202032810455 386.0715059156706
-50.522163476406384 1.8687187588294434 138.43458898593784
-50.89170509485041 1.882387400610333 176.18291947940645
-8.522841003452847 0.3152436824901774 543.3570265951068
-167.66771265309157 6.20170986998959 384.487475517596
-29.152102392474333 1.0782808346197215 17.073815091540236
-10.735013968189225 0.3970677539971061 115.63354691691146
-48.56987065107008 1.7965071595154551 137.50508841534193
-52.177498256671896 1.929946444723567 173.47466700664668
-25.691804386272292 0.9502909911453893 12.916458238075705
-24.00287059391038 0.8878205416825202 11.366086665884698
-50.40325719632546 1.8643206416301747 155.1308888512406
-120.34828253465625 4.451454128056965 580.5114151833199
-45.327956670181806 1.6765949258790922 69.52055123841964
-47.02809786330705 1.7394799157852647 191.15659096330677
-55.876408622279115 2.0667621056496253 329.780313216437
-26.760319059327117 0.9898133171153477 14.015811523389738
-30.267064854705037 1.1195211759905772 19.249018216684675
-54.014238856928294 1.9978839869550211 198.74411491219342
-115.36011487884886 4.266951291496004 578.4118838833133
-12.277606126265919 0.45412530467716167 412.3442935774217
-30.010016390681056 1.110013442085353 18.406563714032547
-96.66393766263445 3.5754152471487473 569.4780799981073
-43.75767263191007 1.6185131052068793 62.46352803494257
-53.051421336743815 1.9622711976860379 350.0120794260452
-45.0897162417232 1.6677828654458515 71.42130710969897
-51.60357075193662 1.9087179576496152 353.259013672312
-54.263473613897006 2.0071027066940763 294.9355756555154
-53.09272891920879 1.9637990866148294 363.69012788604505
-54.74817928051551 2.025031047631889 261.140012419771
-51.432004619926474 1.9023720526604733 117.9318226152374
-44.29255660660215 1.6382974463460138 69.25276769536991
-43.66186385282891 1.6149693206495708 89.19119546918252
-41.09265830866744 1.5199392929290587 57.857175848068046
-49.81259799207674 1.842473280806636 192.811704374872
-28.42031975031201 1.0512135861747272 16.714187093711534
-56.073194623212025 2.0740408456345047 385.31193598761905
-51.5100541355447 1.905258955831622 324.3699582026379
-51.695968016638474 1.912135556777046 234.8627502119913
-50.83387170827367 1.880248253611352 218.87055723309285
-145.71307396553956 5.3896495317993915 592.7499321370376
-39.56865201886013 1.4635691981751602 39.05580550542736
-52.451826343047905 1.9400933190022989 400.9729119090597
-108.91932603576892 4.028718759384753 575.7783067158664
-50.467201412252024 1.8666858165870313 258.89941406575446
-163.6761625014341 6.054070019833644 599.1743228357512
-149.89222756504637 5.544228476762329 594.8553393500681
-174.13811220448315 6.441037645896369 403.05217525646856
-56.48194693986963 2.0891598165829635 306.7753865817741
-53.9113078505531 1.9940767647530595 397.7523546985155
-52.459580773122816 1.94038014062568 404.7638494029424
-99.55476350823415 3.6823413982567437 570.5283442785809
-22.038015947329317 0.815144304487058 531.6990735481578
-11.527619834873258 0.4263847378614732 464.2915814304074
-9.67125314121757 0.35772126375430047 19.12759349214965
-135.20319480639344 5.000909086293752 587.4114397867991
-69.64937111026832 2.576197798718848 555.8092717980403
-56.000134759905414 2.0713385002145124 361.7512665249438
-36.87965115715303 1.3641081694500692 34.281474573611064
-50.56530564673769 1.8703145056749317 113.3857456663085
-51.862289334398035 1.9182874660601008 254.8020507458522
-43.04860525164791 1.5922860511063808 51.88889971933376
-51.78180430880886 1.9153104780062618 187.64690786557176
-173.1874580740236 6.405874757284561 396.9147785728479
-50.33920290302411 1.8619513951205373 241.2889087961948
-50.82778939852021 1.880023280539116 130.31549627612938
-51.16018757141774 1.8923180568976998 158.84152815001264
-47.26617379103678 1.7482858916493431 212.70868595127473
-50.824722770030995 1.8799098517825101 336.6454043891473
-36.562325855211675 1.3523709099270096 36.587328120822065
-53.175944275952716 1.9668770644263431 160.58466299769577
-30.54445971883636 1.1297814845469838 21.17273475483145
-53.081706170289024 1.963391376092103 359.8916387316458
-45.982560537864444 1.7008074782119333 97.26367497882579
-33.27181167765581 1.2306610474294455 536.4150589421653
-170.7320679511381 6.315054545576417 385.672189569368
-13.782272303694015 0.5097800454494797 550.7789701409304
-52.76131000946761 1.9515405313383243 282.96907750663144
-56.05332434174769 2.073305881706585 378.47459876534583
-52.73418488837321 1.9505372246876047 204.5053043633522
-46.04711988155638 1.7031954055751621 90.58075834214138
-42.21798638389079 1.561563038614244 58.93837523137086
-46.44990006618876 1.7180934787160485 104.46466722648402
-54.13769382182123 2.002450351356138 206.48598776003382
-35.51495952978526 1.3136308211221304 540.0466743265918
-52.8398743099202 1.95444647542163 297.47330703805096
-174.35957355135218 6.449229080007125 407.03576016502393
-47.43943661359902 1.754694553995741 82.25317051938076
-45.882703666957866 1.6971139624354707 73.58944685628445
-91.58634625018603 3.3876047958693833 566.4717684294453
-173.09525755123798 6.402464435266506 395.31963552851175
-51.44731908855263 1.902938505734411 308.38269222372264
-54.59882428051686 2.019506690181267 380.1972980416329
-56.09411470406241 2.0748146396455156 392.90644434484597
-48.74713094714329 1.803063680805806 143.00360697170248
-49.25734165288199 1.8219354046427074 111.47656632716912
-52.00988190013315 1.9237466344185934 276.9852559422901
-26.292273633064372 0.9725012067887586 13.40186165105218
-41.93043460165224 1.5509270449704848 48.9196128144153
-70.38720510282803 2.6034888751083667 557.2364137121713
-52.09385457379936 1.9268526239430204 292.25502826212255
-9.245103960206633 0.3419588158736424 111.22855176547245
-11.528370928010583 0.4264125193684152 525.9969440444678
-126.02812591257802 4.661540734353869 583.2048870425745
-32.71292543677983 1.2099889081046051 25.54998734468321
-13.028519374025612 0.48190015784625423 416.83820707142297
-55.97354637853038 2.070355046545399 354.14477533296747
-51.2200173120613 1.894531045237535 264.8854903267531
-35.255855660284205 1.3040470616766735 28.452023341785644
-48.374673239931575 1.789287178446358 131.99396616702555
-48.180660492407426 1.7821110158317122 176.12815027559137
-55.31547277089103 2.0460141551292876 375.5383821643893
-174.44682904046726 6.452456494632714 408.6285471163743
-51.463089478901416 1.9035218224859314 312.19079203169434
-56.797921837362374 2.10084712721327 383.69019333724674
-171.72958459639662 6.351950789501318 403.21080577646194
-27.284480316234532 1.0092010453129323 532.9724375722617
-47.838830124428895 1.7694673605124507 98.91601174615643
-9.274256365254647 0.34303710790291503 525.2872243641661
-48.21544712795684 1.7833977073337124 147.12693550707237
-49.44340145974787 1.8288174031049629 171.11043529938996
-31.66036806675779 1.1710568124309328 23.337079536410876
-54.873302858508794 2.029659130858711 549.0768308980056
-33.478244967131346 1.2382966222731464 25.880531629430024
-43.60037752034802 1.6126950581276913 88.38745155940569
-47.478651043758695 1.7561450212008995 144.19779990432534
-117.49621819251945 4.345961691256855 578.7682105070432
-48.66421967650311 1.7999969505610482 165.85266277640167
-42.91797196044497 1.5874541740646828 80.32879991683376
-82.11386566993671 3.037235751178216 561.0197376970154
-52.63897736462117 1.94701567942163 263.8533351318067
-51.85076708422105 1.917861279935674 253.27010390046303
-55.28051507439586 2.044721136408177 364.13886104561516
-54.94746859378256 2.0324023803799474 214.82103686171936
-44.639340942236 1.6511243395088495 81.15509930168933
-119.65791637896578 4.425918796692895 582.9495657158798
-51.521679576323464 1.9056889587801908 217.94519164690038
-107.47532627330054 3.975307953944283 573.7431889435454
-49.863687847414674 1.8443629974079543 137.86340409578946
-49.73072818466149 1.8394450723062206 187.3973012558572
-56.6754860449395 2.096318460063859 347.94510937246486
-51.88476648359661 1.919118853068537 257.8650965369234
-43.23152496242102 1.599051903385074 52.69927047171572
-48.85095164627744 1.8069038110511662 232.37202812318858
-55.959629143532496 2.0698402744865234 350.34027545475254
-53.37139308034268 1.9741063440537858 201.2412383331376
-49.46093090462227 1.8294657839385344 127.60214560253472
-54.14937456425089 2.002882399807617 207.25945964441016
-51.008700401039775 1.88671483451908 153.36256723436276
-51.668606961179265 1.9111235233628021 181.4385099447875
-170.24247991445247 6.296945615053675 387.5105074253413
-55.10321656586118 2.0381632017115376 318.46542584537247
-9.243397447241493 0.34189569520400537 108.2092468409381
-52.66020464155748 1.9478008360317238 266.9144717157487
-48.64806869672612 1.7993995565302716 165.07467738847376
-21.287875549455297 0.7873980375656582 529.4696864426099
-173.95114154371464 6.43412195668025 605.0119530279367
-53.13073659402687 1.9652049182345541 159.01772486507224
-19.787454901708287 0.7319003308633462 528.0198081840483
-41.32613693845118 1.5285752234839016 46.49954001156875
-13.02840799426861 0.4818960381208319 413.074890587951
-51.65939312220446 1.9107827209792885 231.02184732555926
-39.54587129371809 1.4627265824698263 45.94275168153644
-171.21851935651586 6.333047458071404 603.4117754985908
-87.95090854406614 3.2531368679241623 564.7394366345171
-120.34224824499849 4.451230931156758 579.7450349561083
-43.70582176959778 1.6165952404046389 65.18158747670019
-56.79565329708579 2.100763218222081 382.930356216142
-44.064756262173304 1.6298715447691587 67.62471450740571
-7.771010689397266 0.28743490878260636 465.11878349956413
-47.090937865006815 1.741804247957541 116.40335037089145
-52.74329686074359 1.9508742592191213 279.91307258687397
-116.62636564535775 4.313787499566594 398.8181179919595
-52.350316898630616 1.9363386776740525 359.23418553861757
-16.782903188919885 0.6207676761783811 460.3741444372298
-48.0257630590547 1.7763816543102888 123.30620016431409
-50.950491099337476 1.8845617831344093 230.40241183793773
-44.71987337443491 1.6541030810430388 76.83760899531363
-51.338754933184674 1.8989229240626697 203.29406477267588
-157.48924203137804 5.825227596108483 596.8676769210592
-52.774465711323835 1.9520271357343488 285.2604922366511
-51.73702558908507 1.913654198310653 123.50634645319195
-172.8301474027975 6.392658514984051 424.6743092625187
-39.76521868152796 1.4708398252546877 40.89258941564125
-48.403743964665615 1.7903624492761323 132.78206789065686
-174.3159997326901 6.447617367310663 417.61796034750546
-52.54061338691101 1.9433773829257586 250.83117964007533
-154.04589305812422 5.6978646651342295 596.1713540905062
-57.4765664348854 2.1259489004293317 368.38031560330256
-32.5239002179217 1.202997224691503 535.7053543118151
-36.31604362244138 1.3432613984438129 32.72425356834485
-32.159328589045224 1.1895124133742556 25.012711568698546
-41.02721352088112 1.517518614672455 67.63119258313145
-54.5595554163635 2.0180542095661886 366.52365629220947
-52.06177646723492 1.925666115777892 286.14968973843753
-49.64875197166077 1.8364129280655295 243.72693712503002
-174.61910746039956 6.458828745797677 411.8130291188456
-156.11096700965837 5.774247823852365 596.4359942051939
-54.93646491920612 2.0319953753809106 214.04831745726457
-9.058280169283218 0.33504855909381837 18.578838597756686
-178.68239139581576 6.609121892212686 606.0478924077211
-51.2050533756596 1.8939775576840407 262.5911359077105
-184.10636164293433 6.8097442379453 609.2093471681761
-53.508462075325234 1.9791762655407668 210.51942888561868
-45.62491375548107 1.687578803798833 85.7416654240494
-47.04239815892344 1.7400088565280265 95.95640677637024
-38.4826474087093 1.423399952689229 37.969152013650636
-46.17814774922253 1.7080418772499453 92.19089267374913
-172.71823097904237 6.388518939279025 388.9352764549558
-56.30065072590967 2.0824540143643007 278.483868461794
-55.516541654682534 2.053451310807182 268.6641119323976
-49.191412403536475 1.8194968070742354 288.15999612619765
-51.672193610737885 1.9112561867099427 379.82938201413486
-56.28935850991807 2.08203633676698 276.9522619790121
-30.542438726472565 1.1297067318823748 22.270343633012057
-56.793371777363106 2.1006788291458607 382.17049122938084
-12.222286787354397 0.45207914752084194 120.02919128444313
-54.618935825909396 2.020250578003126 387.79000256777
-35.90038479109356 1.3278869686497379 29.96542201739596
-48.284942314789404 1.785968202149181 129.62799369935962
-48.875976486704126 1.807829432313682 128.61695468673827
-52.54679195500341 1.943605916410916 251.59777035917753
-119.66375922499631 4.4261349124573615 583.7156633788181
-44.34153204366209 1.6401089546358067 73.59034416715429
-51.280065341832376 1.8967521076771188 163.52966463475101
-26.535694150157916 0.9815048688506396 535.2682406806074
-22.037913133024954 0.8151405015814416 530.1932218913364
-47.90709142498459 1.7719922162207797 136.9309303836991
-49.68107862666626 1.8376086295648761 184.30025921745633
-43.192739504027834 1.597617303029866 61.92296640856925
-45.31034344578127 1.6759434462001563 63.27062298777001
-40.66414366700652 1.5040893511568938 55.41363154856915
-34.019917534953905 1.2583320605636312 538.6313647706515
-127.44940863508434 4.714111279682713 584.4485165624783
-174.51898018014407 6.455125228093584 421.592303031182
-100.9979117208866 3.735720706488749 571.0494039482553
-46.76936024195857 1.729909703162549 100.21971134610536
-50.04701012709019 1.8511437399448607 167.81236860990919
-50.963966177727805 1.885060200661134 391.2993728961707
-11.378729915218143 0.4208775828484053 67.80683110994094
-49.688274695419125 1.8378747984646813 152.98460249240193
-56.47765627860289 2.089001113181422 306.0117385111457
-51.922383735523184 1.9205102436878965 196.16801231448326
-44.30646002807349 1.6388117074688087 77.91623170234219
-39.051601296264764 1.4444444751210594 42.45985663940961
-173.93957015848494 6.433693953143653 410.45848525538304
-49.27634237994446 1.8226382054067645 204.5526657349045
-43.3031335325016 1.6017005682282777 57.30360353603482
-51.49558028320818 1.9047235955558013 172.88509617854578
-27.10502262841465 1.0025632466802237 15.84523608579834
-50.256649580495534 1.8588979046957876 405.78900228872226
-23.537583024903938 0.8706104392517615 530.884488026778
-8.477017051914974 0.3135487416572793 78.81131263563672
-51.726441841701345 1.9132627256199808 184.54394358832866
-55.66196723976633 2.0588303266719077 289.3299251989546
-8.510281740623629 0.3147791392396298 147.4717182220878
-80.65246879434541 2.983181459604033 560.4627348383426
-50.88738188238032 1.8822274932016758 118.96840072943696
-173.08825298559998 6.4022053497027755 405.91969743921504
-52.45339423788244 1.940151312450868 401.7311423729888
-46.11320996708973 1.7056399521683916 91.38601014046772
-20.537720094594714 0.7596512137149565 528.7452167551976
-43.62747310542167 1.6136972722971663 76.56250837553057
-31.02512258116705 1.1475602898416044 521.4730711302211
-54.31642285084838 2.009061198285652 304.8581567019269
-25.33790061162054 0.9372007634709327 12.204543821584974
-50.962926948438856 1.8850217615458358 151.79519654427398
-51.58920552615979 1.9081866152636833 224.10242731226387
-10.025636203366474 0.37082921936190905 517.7495845403078
-51.45051743444062 1.903056806467136 309.1443970430696
-51.54547365247363 1.9065690564124231 132.46352785241228
-50.226612841513 1.8577869028358431 228.2461422607635
-51.13578149396214 1.8914153225009036 252.64202248372285
-142.9159701023948 5.286189978609554 591.080054265538
-10.025783423272218 0.37083466474628307 540.3227211126987
-54.96916328881454 2.0332048258966022 216.36612196662693
-49.94361370786102 1.8473193030064154 294.90132521039186
-13.780552202366179 0.509716422172145 462.72749606401675
-13.028362586312875 0.48189435856689283 411.5695578356463
-10.777048409741353 0.39862252806140486 524.5072876013154
-46.51797485985532 1.7206114358891922 89.51592783105734
-50.54299432954751 1.8694892524771554 195.73510841689767
-8.484728633870727 0.3138339784102085 86.37157167981746
-55.73095339227322 2.0613819932756012 300.7922893802656
-51.1674135163304 1.8925853308598464 191.69635899845204
-52.808204868305836 1.9532750829959267 148.81115517594645
-52.43232019643056 1.9393718237299649 391.8724729079884
-7.771302853886305 0.2874457153915036 548.6344923735284
-47.1655261427335 1.7445631265206438 117.98953881318384
-41.37861401795827 1.530516250869423 52.15605959691693
-14.473212922754096 0.5353366251212465 149.29331826996147
-46.2508936633379 1.7107326102863298 101.26784059927088
-46.98073542787926 1.7377280693587138 95.15260241414589
-42.26919203344118 1.563457038223298 73.8550047771138
-27.982333161680366 1.0350132950950728 16.05850731427769
-52.820255705578035 1.9537208205518939 293.65821493921254
-6.896304761489291 0.2550811997672692 12.908876125471767
-46.372883368819934 1.7152447775280357 194.39991635818143
-6.726560530195373 0.24880268342126668 11.288924370598323
-71.12338888724891 2.6307189134367093 557.9051132325905
-14.531201914108772 0.5374815276450802 458.1894939194801
-14.531315299744117 0.5374857215641281 461.952831594293
-9.274375029408265 0.3430414970643168 549.3645341122236
-52.179601939783616 1.930024255961705 310.55244098510894
-40.95283912691096 1.514767647262805 57.04255560728692
-10.739239246591735 0.39722403901082554 121.67520157595196
-7.771208801990033 0.2874422365907007 517.0343132265891
-9.23011944441535 0.3414045671276594 90.83562731862601
-9.719382481951008 0.3595014765498327 37.43550506646864
-7.349913896909766 0.27185933914628657 20.872436329714596
-29.671137403885375 161.09149638899464 599.9493529550808
-5.217208342119 28.32543583904002 533.650327951653
-9.893389076652536 53.71350713733656 373.3616030553315
-9.633068331376458 52.30016534909321 239.17507024438444
-31.465161355504712 170.83166910263697 393.48209278942056
-18.569415886592033 100.8176717839258 572.3308289267876
-9.639583617070654 52.33553834836833 243.015116347161
-23.61400422954241 128.2059135547297 585.3939906855943
-9.24330737876513 50.184062611422725 406.4590117786938
-9.14725839038257 49.66259034513982 136.85801226573037
-31.532491859530385 171.1972220471864 422.62068189758094
-6.490499572447415 35.2384296633256 28.991119042755614
-7.316415348377384 39.722518238184676 40.39069680920207
-9.956042966446986 54.05366965703349 213.27548381532972
-2.08624222200094 11.326693574208047 183.47209213005894
-7.465652120314433 40.532759334788345 47.569667829212904
-7.436907718703149 40.376699302261194 48.643907599039714
-9.859485611954415 53.52943735306613 183.03050919790962
-9.675346092693493 52.529701134723254 267.545020133167
-2.361610197816264 12.821730271921238 416.08554536900033
-14.885550522446346 80.81711110679761 563.2986442787593
-9.602896507059363 52.136355507162776 328.71426505577233
-10.360549943101343 56.24983198414756 299.7713998846349
-10.121490600165892 54.95192328738831 321.3957656518271
-9.763739777697708 53.0096109809431 378.7784410666044
-32.27366086368334 175.2212007147688 607.7903754477502
-9.59459833146192 52.09130278450861 317.2929082397085
-10.423134250961681 56.58961672736308 375.98485589690017
-10.356183920506115 56.22612783342494 295.9488352924347
-9.543090006256708 51.81165212363735 118.24557720820623
-10.801549730405148 58.64412225610375 352.8178902104028
-9.840608119600649 53.42694706258802 299.5162827578847
-33.615550408660646 182.5066307219391 609.6066502807976
-2.3615816224973596 12.821575129877996 410.816887086722
-4.5382961508668505 24.63946386847381 532.3250008339916
-9.262073085578864 50.28594599224067 156.4946813083163
-9.786135498053264 53.131202548387144 197.19412269577663
-9.42442176568995 51.16737468369516 200.80888454889967
-10.135461974504876 55.02777712366837 338.9214707016089
-9.665393587775593 52.47566667395353 198.14436810158222
-16.074534272087902 87.27238003716477 565.3915652039481
-9.853391685948521 53.496352013403865 181.47332641721144
-1.1528601772324978 6.259145665691451 4.932933590807192
-8.979070881221565 48.74946129464592 92.24546392942554
-10.42268175841336 56.58716004022224 375.2245428759639
-9.738967004041712 52.875113839036175 335.4526846987281
-7.404930808728234 40.20308923104496 41.9791771710391
-9.940861348240308 53.97124512570426 273.3974232143031
-2.2259134932538127 12.085001345912552 550.0605337686401
-26.66486811499336 144.7697621829956 593.1963881215091
-1.9534956474889815 10.605981589441186 520.7449779839461
-30.895127797258027 167.7368245188268 426.3909715751698
-9.966704054265453 54.111551178945966 295.57270116299384
-31.18487882477446 169.30995014483528 387.58148240988805
-10.511836620698947 57.07120249469382 320.26724631164296
-10.373526545830073 56.320284974309736 311.9946303841907
-33.85874383627802 183.82698432461976 610.0023659447249
-9.712541955344799 52.73164611217443 301.92863987391615
-31.79093790962767 172.60038567988704 414.75932423940577
-24.123254848626193 130.9707534443689 585.5615286935823
-2.9057262976883016 15.775862954622248 413.7265803419528
-10.536101922615664 57.20294445466273 348.4786680900964
-31.72041506581107 172.21750078115934 407.59354524151786
-2.7700746940809595 15.039378892174005 459.6715097475288
-17.127785036603655 92.99072306591827 568.3023329330304
-9.39605291591888 51.01335360933426 106.23122780562464
-9.903354000912024 53.76760902559629 248.09595862297945
-10.159678216010091 55.159252723268466 376.9548818303506
-33.24858977170746 180.5143161935818 608.6205918170436
-10.00373055536309 54.31257665318633 338.2735198461851
-9.73363002386182 52.84613813407164 327.84052576822074
-10.521032919144885 57.12113133489062 330.1859961297939
-10.284917307309225 55.83920483798361 365.44612094996324
-30.414598171842137 165.12791757455335 601.2092933972323
-9.741042545854357 52.88638243760271 229.0256913182126
-9.273493372176276 50.34794938065568 104.8781789787074
-30.727578960261123 166.82716296784992 385.3586969863614
-10.40992816951895 56.51791784396382 355.4452219313067
-6.6488742282929 36.0982824540346 30.286552157332512
-20.134230740225732 109.31341506846094 577.6811633451993
-8.18035801580768 44.41306363913117 59.74008091107948
-31.299051302233767 169.92981904268044 388.1368030930384
-9.601355998327273 52.12799172745745 123.82794611281167
-10.647110870627493 57.80563781637564 325.485975451607
-9.622814349550728 52.244494100169796 184.95731042680566
-10.420845209382378 56.577188988975855 372.1829732508282
-2.6340265340429174 14.30074183275923 463.4581556473985
-24.762033140317392 134.43882915271254 587.8731087713716
-9.578018306596812 52.001285978636616 297.47330703805096
-10.196955851477238 55.36164166432941 272.35586404059666
-27.292997242340608 148.18002110473924 593.9174388336568
-32.02263821008043 173.85834042579535 605.8287594092209
-9.687157469229938 52.593827841251894 205.88259523803887
-10.124710371355071 54.969404172998956 325.20755456847803
-9.218868957662481 50.05138074718471 221.1786664407
-4.266423335323233 23.16340320766222 523.354251281537
-10.242006841183262 55.60623395099376 310.5928669583418
-10.044741966412005 54.53523712908803 256.39439941378106
-31.783235250022155 172.55856615186772 413.9634931250481
-9.847162994341838 53.462534999994226 179.9154675429085
-9.147875368940033 49.66594006502782 111.7877920203458
-9.697250169150815 52.64862345325449 209.74692739277998
-8.970580392079722 48.70336445709243 173.4414558152236
-9.151349596591135 49.68480245387035 158.25867690743016
-9.288211095427128 50.4278553185254 161.9677588618927
-5.151608447272904 27.969278773678088 16.714187093711534
-4.255341104316888 23.103235201567962 9.852303550201023
-7.374604846695312 40.03844253965525 44.08874251160953
-9.238431154436448 50.157588456989636 180.06710745684381
-14.221834634984022 77.21364339900241 560.001136491437
-20.132466650101726 109.30383741344986 576.1519836239614
-10.300993156054275 55.926484354599786 394.325050373852
-9.761890945829474 52.99957324332046 374.98176556068756
-31.275065194837417 169.79959289460837 406.9534685305061
-31.35076083878622 170.21056212668924 392.92620696410046
-31.285069285759008 169.85390742777352 604.600987899715
-10.544433314155025 57.2481775143803 359.9003791398572
-9.614464547654853 52.19916108635071 182.6256200715026
-9.434436325354271 51.22174605409605 204.6727325022863
-10.562492457386474 57.346224797403444 388.8020510441328
-2.6340143820599002 14.300675856821009 461.20016543100354
-5.73593681966553 31.14173322360247 21.15970143574693
-10.122791432756252 54.958985809652965 322.9206094310864
-26.791765028459267 145.4587149993002 593.8047138807865
-31.442089660819683 170.7064075135563 401.69797055527954
-20.780882339853648 112.8242367942488 577.7815914664945
-9.26245773568181 50.28803434698846 104.07464379526311
-9.496530461185335 51.5588695395172 233.94593590137973
-6.96739906622173 37.82762777978198 39.0107772669007
-5.352511538231646 29.060028316278373 520.8028227562667
-10.341094498734574 56.14420385795563 283.706899370958
-9.697551003353382 52.65025675201203 286.66102768607163
-29.169317142837883 158.36699763891065 597.5512869863608
-9.900735611167102 53.75339317952347 246.55985037786888
-1.9532506036360653 10.604651189449777 410.12684743892225
-31.430448803793574 170.64320659705416 423.648021306539
-3.8587119800585667 20.94984356482327 526.4581171846543
-10.029216097520768 54.45094358083663 247.17914257986914
-10.328531841575328 56.075998274433246 274.51496117214697
-8.920253684851053 48.4301290746586 122.05687630603846
-5.466617605018362 29.679536655157474 20.463347665200473
-4.478858218635378 24.316761529325134 10.756045194826706
-8.100639404220502 43.98025278136641 55.40470967330151
-16.60192629476007 90.13571382041073 567.2329448459521
-31.89849407344037 173.18433307423868 605.2364417663074
-29.297168014537515 159.06112971603264 598.9259175575976
-10.298680722078547 55.91392961345925 389.76789532758636
-8.802990290634511 47.79347887184158 203.17029920725733
-9.557376756495843 51.8892182089286 146.45022350276142
-20.003963907569887 108.60616617817615 577.0473867247165
-1.544865694329774 8.387434665279066 507.2416582339657
-10.096370669723388 54.81554135065674 219.2894677235921
-10.67402803630881 57.95177736064488 357.50343733664687
-12.625241824059009 68.5453702035791 556.5670300961044
-9.297738610857493 50.47958241265917 126.91708795935538
-10.49769632740135 56.9944315581543 306.5203325062737
-28.047298207645078 152.27529623944469 596.002378222292
-9.540206947025961 51.79599932545381 164.69778674863065
-31.190588775600894 169.34095079406612 421.73130082236656
-9.367385673227439 50.85771249050388 153.9414428150301
-32.51865941522315 176.55135475448267 608.1951464912253
-25.652569295721605 139.27375677647737 590.6276376776266
-10.375049382117096 56.328552806206204 313.52161711558136
-9.37915253108426 50.921597494780926 137.206686580523
-16.339610478585918 88.71154032888624 568.2158125111066
-9.508856997787483 51.62579316969369 125.65635632336647
-10.216986961584345 55.47039521352985 287.6681839765577
-10.109560771464773 54.88715347654593 224.69362378526637
-10.549080570224378 57.273408546953284 366.7496344678979
-31.58932981163916 171.50580849037712 405.4426007695046
-10.510349757422997 57.063129968629575 318.7405932105176
-9.17332947705235 49.804136329944974 140.7975088139597
-10.250629244858816 55.653046983189256 319.7499188349167
-9.5137867711705 51.65255805438007 189.01986949003089
