ply
format ascii 1.0
element vertex 949
property float32 x
property float32 y
property float32 z
element face 0
property list uint8 int32 vertex_indices
end_header
26.15707562794524 31.41488999297895 56.51823
4.976476881470816 5.976794807175833 123.463313
24.712944664628335 29.68047533618197 61.210642
21.34330472435921 25.63350657158471 110.637386
6.4206109223767625 7.711213160185744 113.922075
24.71294466462834 29.680475336181978 62.30553900000001
20.861926710723896 25.055367120581405 102.503871
20.8619267107239 25.05536712058141 106.57062900000001
25.675697614309925 30.83675054197565 46.038509
5.939232908741449 7.133073709182442 48.69754300000001
26.63845364158056 31.99302944398226 40.876855
22.787435687676115 27.36792122838169 77.634086
23.750188637357702 28.52419643417536 49.636025
19.41779574740699 23.320952463784426 87.48815199999999
24.231566650993017 29.102335885178665 64.338917
30.00809358184968 36.03999820857952 115.329798
23.268813701311426 27.94606067938499 93.901115
24.231566650993013 29.10233588517866 85.76760000000002
6.901985858423032 8.28934891497611 89.05228899999999
20.380548697088575 24.47722766957809 99.53201
20.38054869708858 24.477227669578106 81.231602
24.712944664628335 29.68047533618197 67.467192
23.75018863735771 28.52419643417537 60.27216000000001
23.750188637357702 28.52419643417536 63.087607
23.268813701311434 27.946060679384995 69.34415700000001
23.268813701311437 27.946060679385 98.437114
24.71294466462833 29.680475336181967 55.579747999999995
26.15707562794524 31.41488999297895 46.50775000000001
24.71294466462833 29.680475336181967 59.020849999999996
23.750188637357706 28.524196434175366 65.120986
23.750188637357706 28.524196434175366 73.567328
24.71294466462833 29.680475336181967 52.60788600000001
58.409350222497665 70.15017037458045 16.319897000000008
23.750188637357695 28.524196434175355 73.25450099999999
5.45785489510613 6.554934258179133 131.440414
23.750188637357706 28.524196434175366 68.40567500000002
22.78743568767612 27.367921228381693 65.903055
22.787435687676112 27.367921228381682 80.44953300000002
23.750188637357702 28.52419643417536 72.159605
22.787435687676115 27.36792122838169 54.797679
7.383363872058351 8.867488365979419 72.31601800000001
62.26036817640211 74.77527859018103 27.425273000000004
4.976476881470819 5.976794807175836 131.90965500000001
4.976476881470816 5.976794807175833 31.022789000000003
58.409350222497665 70.15017037458045 126.122347
25.19432267826365 30.258614787185273 48.38471500000001
23.268813701311437 27.946060679385 73.88015600000001
27.119831655215872 32.57116889498556 43.692303
23.268813701311437 27.946060679385 84.829118
24.231566650993024 29.10233588517867 61.836297
24.712944664628335 29.68047533618197 62.149125
5.939232908741453 7.133073709182447 14.912174
28.082584604897463 33.72744410077924 41.50251
6.42061092237677 7.7112131601857525 64.02609
19.417795747406988 23.320952463784423 103.28594000000001
6.901985858423037 8.289348914976117 22.732861
24.71294466462833 29.680475336181967 49.16678400000001
22.787435687676123 27.3679212283817 74.662225
6.901985858423035 8.289348914976115 88.113807
8.346119899328988 10.023767267986035 29.927893
24.712944664628328 29.68047533618196 82.48291200000001
7.864741885693674 9.44562781698273 105.006491
25.19432267826365 30.258614787185273 45.25644
4.976476881470818 5.976794807175835 21.637965000000005
5.939232908741457 7.133073709182452 121.586348
24.231566650993024 29.10233588517867 47.759060000000005
6.901985858423037 8.289348914976117 25.235481
24.231566650993024 29.10233588517867 80.293119
21.824679660405476 26.21164232637507 84.985532
5.457854895106136 6.554934258179142 5.683763
28.56396261853278 34.30558355178255 41.189683
22.787435687676123 27.3679212283817 96.090908
22.78743568767612 27.367921228381693 85.611187
21.82467966040548 26.211642326375078 99.68842399999998
5.939232908741453 7.133073709182447 19.917414
64.18587715335434 77.08783269798133 128.781381
20.861926710723896 25.055367120581405 86.862497
23.750188637357706 28.524196434175366 87.175324
5.457854895106133 6.554934258179138 27.738101
36.26599852634167 43.555799982983686 118.30166000000001
54.558332268593226 65.52506215897989 125.18386400000001
24.712944664628335 29.68047533618197 50.418094
67.55551709362345 81.13480146257857 129.407035
21.82467966040548 26.211642326375078 93.27546
25.67569761430992 30.836750541975643 49.94885300000001
20.86192671072389 25.055367120581398 96.872976
23.750188637357702 28.52419643417536 84.51629000000001
20.38054869708857 24.47722766957809 105.16290500000001
4.9764768814708065 5.97679480717582 125.34027800000001
24.231566650993017 29.102335885178665 56.987471000000006
21.824679660405486 26.21164232637508 86.393255
23.26881370131144 27.946060679385006 68.71850200000002
5.457854895106133 6.554934258179138 40.2512
25.194322678263653 30.258614787185277 46.664164
22.787435687676115 27.36792122838169 67.78002
6.420610922376762 7.711213160185743 124.245382
23.268813701311437 27.946060679385 60.11574600000001
24.712944664628335 29.68047533618197 66.52871000000002
4.97647688147081 5.976794807175825 110.16814499999998
24.231566650993024 29.10233588517867 44.161544
22.306057674040797 26.789781777378384 108.29118
22.787435687676115 27.36792122838169 97.185804
22.30605767404079 26.789781777378373 88.73946200000002
4.976476881470816 5.976794807175833 51.825818
22.787435687676112 27.367921228381682 96.40373500000001
6.901985858423032 8.28934891497611 88.42663399999999
23.268813701311434 27.946060679384995 72.78526
22.30605767404079 26.789781777378373 95.308839
22.306057674040794 26.789781777378376 74.50581100000001
24.231566650993024 29.10233588517867 49.01037
20.380548697088585 24.47722766957811 101.721803
24.231566650993024 29.10233588517867 72.628846
21.824679660405486 26.21164232637508 90.77284000000002
23.750188637357706 28.524196434175366 77.008431
25.19432267826365 30.258614787185273 45.56926800000001
23.268813701311437 27.946060679385 82.01367100000002
21.824679660405486 26.21164232637508 94.21394300000001
23.268813701311434 27.946060679384995 78.885396
19.89917068345326 23.89908821857479 111.575868
60.8162372130852 73.04086393338405 20.543068999999996
7.864741885693671 9.445627816982727 66.21588200000001
22.78743568767612 27.367921228381693 93.588288
25.675697614309925 30.83675054197565 56.674643999999994
23.750188637357695 28.524196434175355 88.583048
25.19432267826365 30.258614787185273 53.859196000000004
26.638453641580554 31.993029443982255 48.228302
24.231566650993017 29.102335885178665 51.982231
24.71294466462834 29.680475336181978 77.790499
6.901985858423025 8.289348914976102 133.630207
4.976476881470819 5.9767948071758354 5.058108000000001
6.901985858423033 8.289348914976111 100.001251
4.9764768814708065 5.97679480717582 122.524831
20.86192671072389 25.055367120581398 79.511051
24.712944664628335 29.68047533618197 57.925954
60.816237213085216 73.04086393338406 22.263620000000003
24.71294466462833 29.680475336181967 76.226362
28.56396261853278 34.30558355178255 41.033269
21.82467966040549 26.211642326375088 110.324559
4.976476881470811 5.976794807175827 125.027451
21.343304724359207 25.633506571584704 111.419455
21.824679660405476 26.21164232637507 82.952153
23.268813701311437 27.946060679385 94.996011
21.82467966040548 26.211642326375078 66.372296
19.417795747406988 23.320952463784423 104.53725
24.231566650993017 29.102335885178665 78.41615400000002
24.71294466462834 29.680475336181978 44.943613
23.750188637357706 28.524196434175366 67.93643300000001
20.38054869708858 24.477227669578106 108.604007
23.75018863735769 28.524196434175348 97.811459
25.675697614309925 30.83675054197565 63.400435
26.63845364158056 31.99302944398226 47.44623300000001
22.306057674040794 26.789781777378376 70.439053
5.457854895106132 6.554934258179136 83.42139400000002
7.383363872058346 8.867488365979412 115.173385
5.457854895106135 6.5549342581791405 1.6170049999999996
22.306057674040797 26.789781777378384 85.454773
5.457854895106136 6.554934258179142 19.761000000000003
24.71294466462833 29.680475336181967 68.092847
24.71294466462833 29.680475336181967 86.70608299999999
6.90198585842303 8.28934891497611 118.14524599999999
24.23156665099301 29.102335885178654 80.13670600000002
61.29761522672054 73.61900338438738 26.95603200000001
22.306057674040794 26.789781777378376 90.147185
6.90198585842304 8.28934891497612 82.170084
24.231566650993024 29.10233588517867 75.287879
61.297615226720524 73.61900338438736 30.553548000000006
7.383363872058352 8.86748836597942 73.09808700000002
46.374918347149034 55.69670627677546 122.055589
24.71294466462833 29.680475336181967 53.233541
7.383363872058357 8.867488365979426 114.078488
5.45785489510614 6.554934258179146 115.486212
24.231566650993017 29.102335885178665 78.572568
23.268813701311434 27.946060679384995 79.198223
20.861926710723896 25.055367120581405 105.319319
22.306057674040794 26.789781777378376 71.221122
4.976476881470819 5.9767948071758354 123.30689899999999
25.194322678263656 30.258614787185284 63.869676000000005
4.976476881470813 5.976794807175828 102.03463
22.787435687676112 27.367921228381682 73.72374200000002
24.231566650993017 29.102335885178665 86.54966899999998
65.14863318062497 78.24411159998793 128.155726
26.157075627945243 31.414889992978956 48.071888
23.750188637357702 28.52419643417536 70.90829500000001
23.750188637357706 28.524196434175366 74.818638
24.231566650993024 29.10233588517867 69.500571
23.268813701311434 27.946060679384995 70.126226
20.8619267107239 25.05536712058141 108.447594
22.3060576740408 26.789781777378387 97.498631
28.56396261853278 34.30558355178255 41.815338
5.457854895106135 6.5549342581791405 8.812038
4.9764768814708145 5.976794807175831 93.431874
20.380548697088575 24.47722766957809 110.48097199999998
5.939232908741453 7.133073709182447 10.376175000000002
22.30605767404079 26.789781777378373 87.80097900000001
25.675697614309925 30.83675054197565 56.831058
21.343304724359218 25.633506571584714 103.598767
4.976476881470817 5.976794807175834 26.486791000000004
6.420610922376772 7.711213160185755 21.794378
6.901985858423037 8.289348914976117 116.581108
24.231566650993017 29.102335885178665 64.651745
41.07976942992767 49.3371834043779 119.86579700000001
23.268813701311437 27.946060679385 71.53395
23.750188637357702 28.52419643417536 73.410915
26.63845364158056 31.99302944398226 42.28457900000001
20.861926710723885 25.055367120581394 105.94497400000002
62.2603681764021 74.77527859018103 28.989411000000015
4.976476881470817 5.976794807175834 15.537829000000002
62.26036817640211 74.77527859018103 28.676583000000015
19.417795747406988 23.320952463784423 78.728982
21.34330472435921 25.63350657158471 102.347457
19.89917068345326 23.89908821857479 100.626906
23.268813701311434 27.946060679384995 74.34939700000001
24.712944664628335 29.68047533618197 48.853956000000004
8.346119899328988 10.023767267986033 29.77148
25.194322678263653 30.258614787185277 67.623606
24.712944664628335 29.68047533618197 45.41285400000001
23.268813701311426 27.94606067938499 89.208703
61.77899016276679 74.19713913917772 31.492031000000004
22.30605767404079 26.789781777378373 83.734222
22.78743568767612 27.367921228381693 80.605947
20.861926710723896 25.055367120581405 98.906355
4.9764768814708065 5.976794807175821 130.971173
24.712944664628335 29.68047533618197 68.24926100000002
25.19432267826365 30.258614787185273 60.89781500000001
25.67569761430992 30.836750541975643 52.45147299999999
6.901985858423037 8.289348914976117 84.672704
25.675697614309925 30.83675054197565 41.34609699999999
6.4206109223767704 7.711213160185753 97.96787300000001
23.268813701311426 27.94606067938499 96.247321
5.457854895106135 6.5549342581791405 113.29642000000001
4.9764768814708065 5.976794807175821 133.473793
21.824679660405486 26.21164232637508 87.01891
24.71294466462834 29.680475336181978 54.641265000000004
21.82467966040548 26.211642326375078 84.359877
60.334859199449895 72.46272448238076 22.107206000000005
23.268813701311434 27.946060679384995 94.057529
4.976476881470819 5.9767948071758354 21.168724
5.457854895106132 6.554934258179136 121.899176
21.343304724359207 25.633506571584704 102.66028500000002
6.901985858423025 8.289348914976102 128.62496700000003
59.85348118581458 71.88458503137745 12.096725999999999
23.268813701311434 27.946060679384995 60.741401
5.457854895106135 6.5549342581791405 118.770901
6.420610922376768 7.711213160185749 110.7938
5.939232908741456 7.13307370918245 122.212003
21.82467966040549 26.211642326375088 91.242082
22.30605767404079 26.789781777378373 99.062769
20.38054869708858 24.477227669578102 95.465253
23.268813701311426 27.94606067938499 72.941673
7.864741885693669 9.445627816982725 87.644565
7.864741885693672 9.445627816982729 31.179203
23.750188637357702 28.52419643417536 74.03657
62.74174619003743 75.35341804118434 26.799617999999995
23.75018863735769 28.524196434175348 75.757121
24.231566650993017 29.102335885178665 43.535889
24.712944664628335 29.68047533618197 50.261680000000005
8.346119899328992 10.023767267986038 24.609826000000005
60.816237213085195 73.04086393338405 28.20734200000001
26.63845364158056 31.99302944398226 114.54773
19.89917068345326 23.89908821857479 101.878216
4.976476881470816 5.976794807175833 15.850656
4.976476881470817 5.976794807175835 30.397135000000002
22.306057674040797 26.789781777378384 108.134766
19.417795747406995 23.320952463784433 83.890636
21.82467966040548 26.211642326375078 68.874916
19.899170683453264 23.899088218574796 107.03987
21.343304724359207 25.633506571584704 89.52152999999998
22.787435687676112 27.367921228381682 91.554909
26.15707562794524 31.41488999297895 60.584987
20.38054869708858 24.477227669578102 100.470493
22.306057674040797 26.789781777378384 89.990772
4.976476881470817 5.976794807175835 13.191622
4.976476881470818 5.976794807175835 12.722381
58.409350222497665 70.15017037458045 19.604586000000005
24.231566650993024 29.10233588517867 75.600707
7.864741885693677 9.445627816982736 126.278761
4.976476881470819 5.9767948071758354 2.2426600000000017
33.85911153575412 40.66510642418008 117.20676299999998
5.457854895106138 6.554934258179143 28.520170000000004
21.343304724359218 25.633506571584714 89.365117
22.306057674040794 26.789781777378376 101.25256100000001
6.901985858423035 8.289348914976115 102.191044
4.976476881470819 5.9767948071758354 123.15048599999999
20.861926710723903 25.055367120581415 109.073249
22.3060576740408 26.789781777378387 109.38607599999999
4.976476881470808 5.976794807175823 132.066069
24.231566650993024 29.10233588517867 46.820578
21.824679660405486 26.21164232637508 59.33367700000001
58.89072823613298 70.72830982558376 12.253140000000013
4.976476881470821 5.976794807175837 132.53531
20.38054869708858 24.477227669578102 104.850077
4.976476881470819 5.976794807175836 44.474371999999995
23.268813701311434 27.946060679384995 83.26498099999999
69.48102607057567 83.44735557037885 129.094208
21.343304724359218 25.633506571584714 98.59352800000002
23.268813701311434 27.946060679384995 82.79573900000001
59.85348118581456 71.88458503137743 25.548308000000006
21.343304724359207 25.633506571584704 92.493392
19.899170683453253 23.899088218574786 107.352697
5.939232908741452 7.1330737091824465 57.456712
20.861926710723896 25.055367120581405 90.46001300000002
19.899170683453256 23.89908821857479 107.97835199999999
21.824679660405476 26.21164232637507 59.177264
23.268813701311437 27.946060679385 66.841537
23.268813701311434 27.946060679384995 66.99795099999999
26.63845364158056 31.99302944398226 42.128165
21.824679660405472 26.211642326375067 97.02939
21.343304724359207 25.633506571584704 91.86773700000002
22.787435687676115 27.36792122838169 81.70084300000002
24.71294466462833 29.680475336181967 50.730920999999995
4.976476881470816 5.976794807175832 100.93973399999999
24.231566650993027 29.102335885178675 74.192983
22.306057674040794 26.789781777378376 69.813398
21.824679660405476 26.21164232637507 76.06994800000001
21.82467966040549 26.211642326375088 79.98029200000002
25.19432267826365 30.258614787185273 71.064708
25.19432267826365 30.258614787185273 66.68512299999999
24.231566650993017 29.102335885178665 65.74664100000001
25.67569761430992 30.836750541975643 47.915473999999996
19.899170683453264 23.8990882185748 104.068009
39.15426045297546 47.02462929657762 119.55297
22.306057674040797 26.789781777378384 91.711323
24.712944664628335 29.68047533618197 77.164844
6.901985858423041 8.289348914976122 103.911595
22.306057674040794 26.789781777378376 78.10332700000001
23.750188637357695 28.524196434175355 58.708022
24.712944664628328 29.68047533618196 58.39519499999999
4.976476881470817 5.976794807175835 16.945552
4.976476881470819 5.976794807175836 6.465831
23.268813701311426 27.94606067938499 93.74470100000002
4.97647688147082 5.976794807175837 106.101387
20.8619267107239 25.05536712058141 111.263041
23.268813701311437 27.946060679385 64.808159
28.082584604897463 33.72744410077924 41.971752
23.268813701311437 27.946060679385 82.639326
5.939232908741447 7.133073709182439 84.047049
22.306057674040797 26.789781777378384 63.71326200000001
24.231566650993017 29.102335885178665 62.461952
24.712944664628335 29.68047533618197 52.920714
4.976476881470816 5.976794807175833 120.335038
26.15707562794524 31.41488999297895 53.07712800000001
7.383363872058357 8.867488365979426 114.39131599999999
61.778990162766796 74.19713913917774 26.643205000000002
4.976476881470817 5.976794807175834 91.085668
6.901985858423037 8.289348914976117 44.787199
6.420610922376766 7.711213160185748 62.61836600000001
21.824679660405486 26.21164232637508 109.698904
21.824679660405486 26.21164232637508 88.895875
23.26881370131144 27.946060679385006 55.73616100000001
22.787435687676123 27.3679212283817 92.02415
22.306057674040797 26.789781777378384 64.964572
22.306057674040797 26.789781777378384 103.129526
23.268813701311437 27.946060679385 83.108567
19.417795747406995 23.320952463784433 94.683184
24.71294466462833 29.680475336181967 52.138645000000004
24.231566650993017 29.102335885178665 53.702783
5.9392329087414515 7.133073709182445 59.646505
7.383363872058352 8.86748836597942 42.910234
21.34330472435921 25.63350657158471 101.56538900000001
60.8162372130852 73.04086393338405 12.565967
22.30605767404079 26.789781777378373 87.331738
4.976476881470816 5.976794807175832 54.484851
23.750188637357706 28.524196434175366 43.84871700000001
6.420610922376762 7.711213160185743 130.03269
4.976476881470817 5.976794807175834 25.079067
6.420610922376773 7.711213160185756 48.541129
23.268813701311434 27.946060679384995 60.42857399999999
19.89917068345326 23.899088218574793 101.096148
24.231566650993017 29.102335885178665 57.61312600000001
24.712944664628335 29.68047533618197 61.05422900000001
8.34611989932899 10.023767267986036 29.458652
24.712944664628335 29.68047533618197 58.55160900000001
23.750188637357702 28.52419643417536 62.77478000000001
20.380548697088575 24.47722766957809 104.693664
5.457854895106138 6.554934258179143 30.866376
24.71294466462833 29.680475336181967 59.49009100000001
24.71294466462833 29.680475336181967 57.143885
4.9764768814708145 5.97679480717583 112.04511
19.89917068345326 23.89908821857479 98.12428600000001
26.15707562794524 31.41488999297895 49.792439
4.976476881470819 5.9767948071758354 7.560728000000001
24.231566650993017 29.102335885178665 51.043749
6.901985858423037 8.289348914976117 25.391895
25.194322678263653 30.258614787185277 55.89257500000001
6.420610922376772 7.711213160185755 46.194923
22.30605767404079 26.789781777378373 75.444293
24.71294466462833 29.680475336181967 74.97505200000002
4.976476881470819 5.976794807175836 31.961272
17.492286770454772 21.008398355984145 109.855317
22.787435687676112 27.367921228381682 75.91353400000001
6.420610922376768 7.711213160185749 64.182504
6.901985858423029 8.289348914976108 96.560149
23.268813701311426 27.94606067938499 77.32125800000001
22.78743568767612 27.367921228381693 104.224422
5.939232908741449 7.133073709182442 101.408975
24.231566650993017 29.102335885178665 79.82387800000001
6.420610922376766 7.711213160185748 124.87103699999999
20.861926710723885 25.055367120581394 108.76042099999998
7.383363872058349 8.867488365979415 120.491452
4.976476881470815 5.976794807175832 112.20152299999998
4.976476881470817 5.976794807175835 23.202102
24.231566650993024 29.10233588517867 49.479611
32.89635858607254 39.50883121838642 117.05035
24.231566650993017 29.102335885178665 50.887335
59.3721062497683 71.30644927658707 6.622245000000008
21.34330472435921 25.63350657158471 106.257801
20.8619267107239 25.05536712058141 92.18056400000002
25.67569761430992 30.836750541975643 55.11050600000001
7.38336387205835 8.867488365979417 80.91877400000001
7.3833638720583545 8.867488365979423 81.38801600000001
24.231566650993024 29.10233588517867 57.76953999999999
22.306057674040797 26.789781777378384 61.36705599999999
19.899170683453267 23.8990882185748 99.375596
23.750188637357706 28.524196434175366 51.200163
21.82467966040548 26.211642326375078 71.37753600000002
7.383363872058351 8.867488365979419 94.839598
24.231566650993017 29.102335885178665 77.94691300000001
59.3721062497683 71.30644927658707 16.163484000000008
4.976476881470818 5.976794807175835 45.100027
4.976476881470817 5.976794807175835 26.330377
6.42061092237677 7.7112131601857525 90.303599
6.901985858423038 8.289348914976118 41.658924
5.457854895106138 6.554934258179143 106.414215
7.383363872058352 8.86748836597942 113.452833
44.930787383832126 53.96229161997848 120.804279
24.712944664628335 29.68047533618197 55.42333400000001
4.976476881470819 5.976794807175836 117.83241800000002
5.457854895106136 6.554934258179142 3.8067980000000006
23.750188637357702 28.52419643417536 56.361816
5.457854895106127 6.554934258179131 128.468553
19.41779574740699 23.320952463784426 107.66552500000002
22.30605767404079 26.789781777378373 94.370356
21.82467966040548 26.211642326375078 112.98359200000002
4.976476881470817 5.976794807175835 18.822517
6.420610922376769 7.711213160185751 97.34221799999999
5.939232908741451 7.133073709182444 132.691724
23.268813701311426 27.94606067938499 70.595467
19.41779574740699 23.320952463784426 97.65504499999999
4.976476881470817 5.976794807175834 17.414794000000004
20.380548697088585 24.477227669578106 107.821939
18.455039720136362 22.16467356177782 108.916835
6.420610922376768 7.711213160185749 85.298359
57.44659727281609 68.9938951687868 19.448172
75.25755300143233 90.3850178937797 132.378897
22.306057674040797 26.789781777378384 69.656985
4.976476881470819 5.9767948071758354 6.309418000000001
34.34048954938943 41.24324587518338 117.363177
4.976476881470814 5.976794807175829 86.236842
25.675697614309925 30.83675054197565 51.51299
27.601206591262137 33.14930464977592 115.79904000000002
21.82467966040548 26.211642326375078 104.38083600000002
22.306057674040797 26.789781777378384 63.244021
4.976476881470816 5.976794807175833 19.135345
21.824679660405486 26.21164232637508 81.075188
4.976476881470816 5.976794807175833 22.576447000000005
4.976476881470817 5.976794807175835 17.884035
24.712944664628335 29.68047533618197 43.223062000000006
5.457854895106133 6.554934258179138 92.649805
7.864741885693663 9.445627816982718 113.609247
4.976476881470818 5.976794807175835 18.978931
22.78743568767612 27.367921228381693 69.969812
21.34330472435921 25.63350657158471 91.398495
59.85348118581457 71.88458503137744 6.778659000000014
4.976476881470809 5.976794807175824 134.412275
58.40935022249767 70.15017037458047 31.33561699999999
4.976476881470816 5.976794807175833 76.695603
6.901985858423037 8.289348914976117 27.268860000000004
20.380548697088575 24.47722766957809 95.934494
23.750188637357702 28.52419643417536 51.356576
20.38054869708858 24.477227669578102 85.924014
24.231566650993027 29.102335885178675 68.562088
23.268813701311426 27.94606067938499 72.472432
4.976476881470821 5.976794807175838 112.827178
24.231566650993024 29.10233588517867 66.059469
6.901985858423038 8.289348914976118 114.704143
25.194322678263653 30.258614787185277 43.066647999999994
7.383363872058346 8.867488365979412 106.727042
20.380548697088575 24.47722766957809 99.219183
53.59557931891165 64.36878695318623 124.714623
4.976476881470816 5.976794807175832 45.882095
4.97647688147081 5.976794807175826 126.904416
61.778990162766796 74.19713913917774 16.789139000000002
5.457854895106135 6.5549342581791405 31.804858000000003
4.976476881470818 5.976794807175835 87.95739300000001
19.417795747406988 23.320952463784423 105.475732
22.306057674040797 26.789781777378384 76.539189
4.976476881470819 5.9767948071758354 9.281279
4.976476881470819 5.9767948071758354 11.627485000000002
7.383363872058358 8.867488365979426 30.709961999999997
7.383363872058359 8.867488365979428 93.11904699999998
62.26036817640211 74.77527859018103 22.42003300000001
63.22312420367275 75.93155749218765 29.615066000000006
6.901985858423037 8.289348914976117 92.336978
24.712944664628335 29.68047533618197 55.26692
19.417795747406988 23.320952463784423 92.962633
4.976476881470819 5.976794807175836 113.765661
50.70731431468878 60.89995394337932 123.932554
22.306057674040794 26.789781777378376 64.495331
68.51827312089407 82.29108036458517 129.250622
23.268813701311434 27.946060679384995 84.203463
82.95958890924122 99.63523432498084 134.25586200000004
60.334859199449895 72.46272448238076 21.01231000000001
5.457854895106127 6.554934258179131 109.54249
8.34611989932899 10.023767267986036 28.832997000000002
5.93923290874144 7.133073709182431 118.45807299999998
27.119831655215872 32.57116889498556 40.720442000000006
23.750188637357706 28.524196434175366 58.082367000000005
23.268813701311437 27.946060679385 65.433814
5.457854895106134 6.55493425817914 40.407614
82.95958890924122 99.63523432498084 134.09944800000002
4.976476881470819 5.976794807175836 13.504449999999999
24.231566650993013 29.10233588517866 114.234902
21.824679660405476 26.21164232637507 90.61642700000002
21.343304724359218 25.633506571584714 67.154365
4.976476881470813 5.976794807175828 111.888696
21.34330472435921 25.63350657158471 95.77808
60.8162372130852 73.04086393338405 21.950792000000007
25.675697614309925 30.83675054197565 56.048989000000006
5.457854895106136 6.554934258179142 10.219761000000002
4.976476881470813 5.976794807175828 110.011731
60.8162372130852 73.04086393338405 24.453411999999993
19.417795747407 23.320952463784437 102.973112
22.306057674040797 26.789781777378384 109.229662
74.77617498779702 89.80687844277641 132.22248300000004
22.306057674040794 26.789781777378376 69.187743
4.976476881470819 5.9767948071758354 13.035209
4.976476881470817 5.976794807175834 26.173963000000004
5.939232908741452 7.1330737091824465 11.471071
23.268813701311437 27.946060679385 51.66940400000001
4.976476881470819 5.9767948071758354 20.855896
6.9019858584230365 8.289348914976115 28.363756000000002
5.457854895106132 6.554934258179136 59.959332
5.457854895106136 6.554934258179142 120.64786600000001
21.82467966040548 26.211642326375078 81.544429
4.976476881470817 5.976794807175835 15.381415
6.420610922376769 7.711213160185751 61.52347
4.97647688147082 5.976794807175837 40.564028
8.34611989932899 10.023767267986036 113.14000600000001
4.976476881470816 5.976794807175833 27.894515
5.939232908741455 7.133073709182449 50.574508
4.976476881470817 5.976794807175834 13.348036000000002
4.976476881470815 5.976794807175832 121.429934
4.976476881470819 5.9767948071758354 5.214521
4.976476881470819 5.9767948071758354 20.386655
6.420610922376772 7.711213160185755 103.755181
4.976476881470813 5.976794807175828 99.844838
24.712944664628335 29.68047533618197 61.992711
23.268813701311434 27.946060679384995 100.314079
4.976476881470819 5.9767948071758354 9.750520000000002
25.19432267826365 30.258614787185273 54.32843799999999
6.42061092237677 7.7112131601857525 29.302238000000003
23.268813701311426 27.94606067938499 76.852017
4.976476881470817 5.976794807175835 13.660864000000002
25.194322678263653 30.258614787185277 44.63078500000001
5.457854895106136 6.554934258179142 24.922653
4.976476881470819 5.9767948071758354 102.816699
4.976476881470816 5.976794807175832 77.477672
41.07976942992767 49.3371834043779 119.70938300000002
4.976476881470817 5.976794807175834 72.003191
4.976476881470815 5.976794807175832 128.93779400000003
4.976476881470818 5.976794807175835 10.063348000000001
4.976476881470818 5.976794807175835 8.655624
49.26318335137187 59.16553928658234 122.83765800000003
26.638453641580554 31.993029443982255 42.753820000000005
4.976476881470817 5.976794807175835 9.594106
31.452224545166573 37.77441286537648 116.737522
23.750188637357702 28.52419643417536 44.317958
4.976476881470819 5.9767948071758354 13.817277
5.457854895106135 6.5549342581791405 118.61448700000001
79.10857095533676 95.01012610938027 133.78662000000003
61.29761522672053 73.61900338438737 127.217243
4.976476881470821 5.976794807175838 112.670765
24.231566650993024 29.10233588517867 67.310778
20.86192671072389 25.055367120581398 98.2807
5.93923290874144 7.133073709182431 126.43517399999999
22.306057674040794 26.789781777378376 79.354637
4.97647688147082 5.976794807175837 18.353276
20.380548697088575 24.477227669578095 96.716563
6.901985858423035 8.289348914976115 29.145825
4.976476881470821 5.976794807175837 130.65834500000003
24.231566650993017 29.102335885178665 44.00513
6.901985858423034 8.289348914976113 57.300299
4.976476881470818 5.976794807175835 15.068586999999999
4.976476881470811 5.976794807175826 94.52677
4.976476881470806 5.9767948071758195 125.496692
5.457854895106127 6.554934258179131 115.016971
7.383363872058357 8.867488365979426 5.840176
4.976476881470821 5.976794807175838 89.677944
7.864741885693671 9.445627816982727 112.51435100000002
20.380548697088575 24.47722766957809 107.19628399999999
5.457854895106138 6.554934258179143 54.954093
19.89917068345326 23.89908821857479 95.621666
4.976476881470819 5.9767948071758354 8.49921
4.9764768814708225 5.97679480717584 114.860557
43.968034434150546 52.80601641418481 121.27352100000002
4.976476881470817 5.976794807175835 15.225001
4.97647688147081 5.976794807175826 122.994072
5.45785489510613 6.554934258179133 133.160965
70.44378209784631 84.60363447238547 131.284
4.976476881470819 5.9767948071758354 8.342796000000002
4.976476881470816 5.976794807175832 111.732282
4.976476881470817 5.976794807175834 47.289819
5.939232908741452 7.1330737091824465 58.864436
4.976476881470815 5.976794807175832 122.681244
28.08258460489745 33.72744410077922 115.64262600000002
4.9764768814708145 5.97679480717583 105.78855999999999
23.750188637357706 28.524196434175366 47.602647
4.976476881470819 5.976794807175836 16.632725000000004
4.9764768814708225 5.97679480717584 119.08372799999998
4.976476881470815 5.976794807175832 126.748002
4.976476881470817 5.976794807175835 123.619727
20.86192671072389 25.055367120581398 106.883456
4.976476881470818 5.976794807175835 14.286519
4.976476881470816 5.976794807175832 40.094787
4.976476881470815 5.976794807175832 42.440993
61.778990162766796 74.19713913917774 17.25838000000001
4.976476881470817 5.976794807175835 24.296998
4.976476881470813 5.976794807175828 110.950214
4.976476881470805 5.9767948071758195 124.55820899999999
4.976476881470815 5.976794807175832 120.02221099999998
4.9764768814708145 5.976794807175831 82.326498
4.976476881470813 5.976794807175828 65.2774
4.976476881470817 5.976794807175834 30.240721
4.97647688147081 5.976794807175825 130.189104
5.939232908741453 7.133073709182447 25.704722
4.976476881470817 5.976794807175835 24.140585
4.976476881470805 5.9767948071758195 131.127587
4.976476881470818 5.976794807175835 49.323198000000005
4.976476881470817 5.976794807175835 28.050928000000003
4.976476881470811 5.976794807175826 124.088968
4.976476881470807 5.976794807175822 125.65310599999998
4.976476881470819 5.9767948071758354 120.960693
28.32205953586254 -14.572658756377173 107.509111
30.997864819253607 -15.949451190698339 66.372296
33.67367010264468 -17.326243625019504 75.75712100000001
36.34947538603575 -18.703036059340672 50.10526600000001
33.00471771259532 -16.982044966298787 86.08042800000001
9.591422552125067 -4.93511171612902 46.976991999999996
35.680522995986394 -18.358837400619954 62.149125
33.00471771259532 -16.982044966298787 59.802919
35.01157488274339 -18.01464094246094 52.29505900000001
35.68052299598639 -18.35883740061995 52.76429999999999
35.011574882743396 -18.01464094246094 67.154365
35.01157488274339 -18.01464094246094 54.01561000000002
85.18292287712433 -43.82949853584236 27.581687
28.322059535862536 -14.572658756377171 105.632146
35.01157488274338 -18.014640942460936 62.931194000000005
37.0184277760851 -19.047234718061386 42.597407
33.004717712595316 -16.982044966298787 65.590227
28.322059535862536 -14.572658756377171 106.257801
10.26037494217443 -5.27931037484974 114.86055699999999
9.59142255212507 -4.935111716129022 49.792439
30.9978648192536 -15.949451190698335 75.131466
75.14864985680305 -38.66652525671671 124.55820900000002
32.33576959935232 -16.637848508139772 79.041809
30.997864819253607 -15.949451190698339 82.952153
34.34262249269403 -17.67044228374022 67.78002
9.59142255212506 -4.935111716129017 76.38277599999999
33.00471771259533 -16.98204496629879 65.903055
33.67367010264468 -17.326243625019504 69.96981200000002
32.33576959935232 -16.637848508139772 78.885396
7.5845696587833595 -3.9025179405285746 43.379475
30.9978648192536 -15.949451190698335 78.259741
32.33576959935232 -16.637848508139772 63.55684899999999
9.591422552125064 -4.9351117161290174 133.317379
30.9978648192536 -15.949451190698335 95.152425
8.922474438882066 -4.590915257970006 101.878216
35.680522995986394 -18.358837400619954 54.17202400000001
30.32891242920425 -15.605252531977621 79.667464
10.26037494217442 -5.279310374849736 94.839598
28.322059535862543 -14.572658756377175 100.470493
30.997864819253607 -15.949451190698339 103.442354
64.44542872323878 -33.15935551943205 121.74276199999998
35.68052299598639 -18.35883740061995 58.23878100000001
6.915617268733989 -3.55831928180785 128.468553
29.659964315961247 -15.261056073818605 106.570629
28.991011925911902 -14.916857415097894 90.929254
78.49340753024347 -40.387516349758585 125.18386399999999
28.99101192591191 -14.916857415097898 94.52677
69.79703929002089 -35.91294038807437 123.463313
49.72850180299109 -25.5869982309465 117.98883200000002
29.659964315961258 -15.261056073818612 109.22966199999999
30.997864819253607 -15.949451190698339 61.21064200000001
31.66681720930297 -16.293649849419058 110.63738599999999
36.34947538603574 -18.70303605934067 113.922075
35.680522995986394 -18.358837400619954 62.30553900000001
6.915617268734003 -3.558319281807857 6.153003999999999
9.591422552125072 -4.935111716129023 132.848138
6.915617268733989 -3.55831928180785 133.160965
35.01157488274338 -18.014640942460936 46.038509
36.34947538603574 -18.70303605934067 40.876855
33.67367010264468 -17.326243625019504 46.820578
30.9978648192536 -15.949451190698335 73.25450100000002
28.991011925911902 -14.916857415097894 89.05228900000002
84.51397048707496 -43.48529987712163 12.253140000000007
32.335769599352325 -16.637848508139776 52.451473
30.997864819253607 -15.949451190698339 84.672704
28.991011925911902 -14.916857415097894 99.53201
30.9978648192536 -15.949451190698335 81.231602
33.004717712595316 -16.982044966298787 67.467192
32.335769599352325 -16.637848508139776 60.27216
8.922474438882075 -4.5909152579700105 63.087607
34.34262249269403 -17.67044228374022 69.34415700000001
33.004717712595316 -16.982044966298787 61.99271100000001
35.01157488274339 -18.01464094246094 46.50775000000001
32.33576959935232 -16.637848508139772 102.191044
28.991011925911895 -14.91685741509789 99.062769
28.991011925911888 -14.916857415097887 82.32649800000002
32.33576959935231 -16.63784850813977 73.567328
10.260374942174426 -5.2793103748497385 22.732861000000003
35.01157488274339 -18.01464094246094 58.082367
26.984159032570194 -13.884263639497448 77.634086
33.004717712595316 -16.982044966298787 75.60070700000001
33.67367010264468 -17.326243625019504 72.159605
30.997864819253593 -15.949451190698332 90.46001300000002
31.666817209302963 -16.293649849419054 107.978352
31.666817209302963 -16.293649849419054 102.503871
29.659964315961258 -15.261056073818612 87.17532399999999
30.997864819253607 -15.949451190698339 98.593528
33.67367010264468 -17.326243625019504 84.829118
30.32891242920426 -15.605252531977623 61.836297
8.92247443888207 -4.590915257970008 102.81669899999999
8.92247443888207 -4.590915257970008 97.02938999999999
35.68052299598639 -18.35883740061995 47.759060000000005
81.16921281363454 -41.76430878407975 125.965933
6.9156172687340005 -3.5583192818078557 29.927893
30.997864819253593 -15.949451190698332 81.544429
31.666817209302963 -16.293649849419054 82.48291200000001
27.65310714581318 -14.228460097656454 105.006491
6.915617268734001 -3.558319281807856 17.101966
30.997864819253607 -15.949451190698339 83.42139399999999
33.673670102644685 -17.326243625019508 89.67794399999998
29.659964315961258 -15.261056073818612 64.18250399999998
39.02528066942681 -20.079828493661836 41.658924
6.915617268733993 -3.558319281807852 130.814759
87.85872816051538 -45.20629097016352 128.31213900000003
35.01157488274339 -18.01464094246094 56.51823000000001
30.328912429204262 -15.605252531977627 79.98029200000002
34.34262249269403 -17.67044228374022 71.06470799999998
32.33576959935232 -16.637848508139772 66.685123
65.1143811132881 -33.503554178152754 122.83765800000002
33.67367010264468 -17.326243625019504 55.11050600000001
30.9978648192536 -15.949451190698335 93.90111500000002
7.584569658783361 -3.9025179405285755 5.683763
31.66681720930297 -16.293649849419058 103.28594
37.018427776085105 -19.04723471806139 40.720442000000006
39.02528066942681 -20.079828493661832 41.189683
40.36318544952553 -20.76822581110327 41.815338
30.997864819253607 -15.949451190698339 91.711323
84.51397048707494 -43.485299877121626 19.917414
8.922474438882062 -4.590915257970004 126.748002
73.81074935351067 -37.97813013983697 123.93255399999998
8.922474438882073 -4.59091525797001 27.738101000000004
34.34262249269403 -17.67044228374022 68.092847
85.85187099036732 -44.173694994001366 26.643205000000002
30.32891242920425 -15.605252531977621 74.975052
9.591422552125074 -4.935111716129024 111.263041
34.342622492694034 -17.670442283740222 56.205403
35.680522995986394 -18.358837400619954 51.51299
30.32891242920426 -15.605252531977623 104.224422
8.253522048832707 -4.246716599249287 93.27546
31.66681720930297 -16.293649849419058 53.077128
30.997864819253593 -15.949451190698332 96.87297600000001
102.57565508076307 -52.77864825864907 131.596828
30.32891242920425 -15.605252531977621 100.939734
30.328912429204262 -15.605252531977627 84.51629
27.653107145813188 -14.228460097656459 105.162905
7.5845696587833435 -3.9025179405285666 122.524831
10.260374942174424 -5.279310374849738 83.577808
32.335769599352325 -16.637848508139776 86.393255
27.653107145813177 -14.228460097656452 109.073249
36.34947538603574 -18.70303605934067 46.664164
8.253522048832716 -4.246716599249292 114.234902
34.342622492694034 -17.670442283740222 64.808159
6.915617268734003 -3.558319281807857 7.717141
33.67367010264468 -17.326243625019504 86.706083
32.33576959935231 -16.63784850813977 92.806219
33.004717712595316 -16.982044966298787 63.71326200000001
93.87928684054053 -48.30407229696487 128.93779400000003
33.67367010264468 -17.326243625019504 49.166784
34.34262249269403 -17.67044228374022 60.115745999999994
28.991011925911902 -14.916857415097894 88.113807
35.011574882743375 -18.014640942460932 44.161544
8.922474438882068 -4.590915257970007 69.65698500000002
30.32891242920425 -15.605252531977621 100.157665
33.004717712595316 -16.982044966298783 88.583048
33.00471771259532 -16.982044966298787 77.790499
30.9978648192536 -15.949451190698335 96.403735
35.01157488274338 -18.014640942460936 53.859196000000004
34.34262249269403 -17.67044228374022 62.618366000000016
37.0184277760851 -19.047234718061386 45.256440000000005
34.342622492694034 -17.670442283740222 49.01037
28.991011925911888 -14.916857415097887 101.721803
57.086965263114905 -29.373176875189255 120.022211
7.584569658783351 -3.9025179405285697 77.00843100000002
6.915617268733985 -3.5583192818078477 132.37889700000002
30.328912429204244 -15.605252531977618 82.013671
6.915617268734005 -3.558319281807858 67.623606
35.68052299598639 -18.35883740061995 44.78719900000001
6.915617268733985 -3.5583192818078477 131.127587
84.51397048707496 -43.48529987712163 20.543068999999996
31.666817209302963 -16.293649849419054 66.215882
30.9978648192536 -15.949451190698335 66.52871
31.66681720930297 -16.293649849419058 93.588288
32.335769599352325 -16.637848508139776 100.78332
10.260374942174412 -5.279310374849731 126.435174
107.92726564754521 -55.5322331272914 132.691724
8.25352204883271 -4.2467165992492895 51.982231
26.315206642520824 -13.540064980776725 105.47573200000001
109.93411854088693 -56.564826902891845 133.630207
6.915617268734004 -3.5583192818078575 5.058108000000001
8.922474438882075 -4.5909152579700105 28.050928
35.68052299598639 -18.35883740061995 114.391316
33.004717712595316 -16.982044966298783 57.925954
34.34262249269402 -17.670442283740215 72.62884600000001
30.328912429204244 -15.605252531977618 86.236842
31.666817209302977 -16.29364984941906 69.187743
6.915617268734003 -3.558319281807857 23.984171
28.991011925911895 -14.91685741509789 110.32455900000001
33.00471771259532 -16.982044966298787 71.53395
8.92247443888206 -4.590915257970004 104.380836
34.34262249269403 -17.67044228374022 63.24402099999999
32.33576959935232 -16.637848508139772 66.05946900000002
33.00471771259532 -16.982044966298787 78.416154
28.991011925911895 -14.91685741509789 99.375596
10.26037494217443 -5.27931037484974 43.535889
32.33576959935231 -16.63784850813977 63.400435
32.335769599352325 -16.637848508139776 47.446233
7.584569658783361 -3.9025179405285755 125.653106
33.004717712595316 -16.982044966298787 87.48815200000001
6.915617268734005 -3.558319281807858 1.6170049999999998
34.34262249269403 -17.67044228374022 85.45477300000002
28.991011925911895 -14.91685741509789 87.800979
7.584569658783365 -3.9025179405285773 122.055589
35.01157488274338 -18.014640942460936 73.09808700000002
8.25352204883272 -4.246716599249294 108.13476599999998
30.997864819253607 -15.949451190698339 74.03657
34.342622492694034 -17.670442283740222 60.428574000000005
10.26037494217443 -5.279310374849741 115.48621199999998
86.52082338041667 -44.51789365272209 24.766240000000014
34.34262249269402 -17.670442283740215 79.198223
6.915617268733992 -3.558319281807851 100.314079
6.915617268734004 -3.5583192818078575 123.30689899999999
8.922474438882071 -4.590915257970009 118.927315
34.34262249269403 -17.67044228374022 63.869676000000005
28.322059535862554 -14.57265875637718 102.03462999999999
89.19662866380774 -45.89468608704325 127.53007100000002
33.004717712595316 -16.982044966298787 71.846777
10.260374942174424 -5.279310374849738 29.458652000000004
29.659964315961254 -15.261056073818608 77.946913
29.659964315961254 -15.261056073818608 104.53725000000001
31.666817209302977 -16.29364984941906 59.95933200000001
30.997864819253607 -15.949451190698339 89.834358
30.997864819253607 -15.949451190698339 74.818638
28.991011925911902 -14.916857415097894 104.693664
26.315206642520828 -13.540064980776727 108.44759400000001
6.915617268734004 -3.5583192818078575 11.627485000000002
30.328912429204244 -15.605252531977618 101.565389
6.915617268734001 -3.558319281807856 15.537829000000002
8.253522048832705 -4.246716599249287 122.368417
33.004717712595316 -16.982044966298783 64.65174499999999
30.32891242920425 -15.605252531977621 105.319319
61.100675326604716 -31.438366626951872 120.960693
33.67367010264468 -17.326243625019504 68.874916
34.342622492694034 -17.670442283740222 55.26692
30.32891242920426 -15.605252531977623 82.639326
28.991011925911902 -14.916857415097894 97.49863099999999
28.32205953586255 -14.572658756377178 103.598767
30.328912429204244 -15.605252531977618 90.61642700000002
10.260374942174428 -5.279310374849739 26.486791
8.253522048832721 -4.246716599249295 116.581108
31.666817209302977 -16.29364984941906 85.76760000000002
8.922474438882068 -4.590915257970007 119.86579700000001
34.342622492694034 -17.670442283740222 51.043749
30.328912429204244 -15.605252531977618 76.695603
73.14179696346135 -37.633931481116264 124.24538200000002
7.5845696587833595 -3.9025179405285746 115.642626
28.991011925911895 -14.91685741509789 98.906355
34.342622492694034 -17.670442283740222 55.892575
33.00471771259532 -16.982044966298787 68.249261
6.915617268734001 -3.558319281807856 120.647866
36.349475386035756 -18.703036059340675 57.61312600000001
85.85187099036733 -44.17369499400137 28.676583
33.67367010264468 -17.326243625019504 51.356576
33.67367010264468 -17.326243625019504 43.223062000000006
33.67367010264468 -17.326243625019504 55.579747999999995
30.32891242920425 -15.605252531977621 87.64456500000001
30.328912429204244 -15.605252531977618 78.728982
32.33576959935232 -16.637848508139772 67.936433
34.342622492694034 -17.670442283740222 48.853956000000004
10.260374942174428 -5.279310374849739 29.77148
33.67367010264468 -17.326243625019504 75.91353400000001
33.67367010264468 -17.326243625019504 94.057529
10.260374942174428 -5.279310374849739 31.492031000000004
35.01157488274338 -18.014640942460936 54.954093
85.18292287712431 -43.829498535842355 127.060829
32.335769599352325 -16.637848508139776 64.33891700000001
6.915617268734004 -3.5583192818078575 8.029969
9.59142255212506 -4.935111716129017 113.140006
36.34947538603575 -18.703036059340672 41.34609700000001
10.92932733222378 -5.623509033570454 88.27022000000001
31.66681720930297 -16.293649849419058 79.51105099999998
28.32205953586254 -14.572658756377173 106.72704199999998
28.991011925911902 -14.916857415097894 96.247321
10.260374942174423 -5.279310374849737 113.29642
31.666817209302963 -16.293649849419054 58.551609
33.00471771259532 -16.982044966298787 72.472432
8.253522048832716 -4.246716599249292 45.412854
31.666817209302977 -16.29364984941906 74.349397
32.33576959935233 -16.63784850813978 68.71850200000002
30.997864819253593 -15.949451190698332 86.549669
31.66681720930297 -16.293649849419058 87.01890999999999
31.666817209302963 -16.293649849419054 84.359877
31.666817209302963 -16.293649849419054 70.12622600000002
30.997864819253607 -15.949451190698339 70.28264
26.98415903257018 -13.88426363949744 108.760421
10.260374942174423 -5.279310374849737 116.111867
33.67367010264468 -17.326243625019504 61.52347
30.32891242920425 -15.605252531977621 71.221122
65.7833335033375 -33.84775283687349 122.212003
29.659964315961247 -15.261056073818605 97.342218
31.66681720930297 -16.293649849419058 91.242082
85.18292287712431 -43.829498535842355 27.268860000000004
31.66681720930297 -16.293649849419058 91.867737
31.66681720930297 -16.293649849419058 72.941673
33.67367010264468 -17.326243625019504 69.03133
33.004717712595316 -16.982044966298787 66.997951
84.51397048707494 -43.485299877121626 28.20734200000001
8.253522048832703 -4.246716599249286 121.117107
8.253522048832716 -4.246716599249292 116.424695
32.33576959935232 -16.637848508139772 87.957393
34.34262249269403 -17.67044228374022 65.27740000000001
30.997864819253607 -15.949451190698339 90.77284
33.004717712595316 -16.982044966298783 58.864436
34.34262249269403 -17.67044228374022 48.541129
32.33576959935232 -16.637848508139772 71.69036300000002
6.9156172687340005 -3.5583192818078557 23.514930000000003
8.253522048832698 -4.246716599249283 118.45807299999998
35.01157488274338 -18.014640942460936 75.444293
6.9156172687340005 -3.5583192818078557 15.850656
85.85187099036732 -44.173694994001366 24.92265300000001
30.32891242920426 -15.605252531977623 83.264981
30.328912429204262 -15.605252531977627 110.7938
30.9978648192536 -15.949451190698335 70.439053
34.34262249269403 -17.67044228374022 61.679884
29.659964315961258 -15.261056073818612 111.106627
6.915617268734004 -3.5583192818078575 2.2426600000000017
6.915617268734004 -3.5583192818078575 14.599345999999999
30.32891242920425 -15.605252531977621 82.795739
