ply
format ascii 1.0
element vertex 943
property float32 x
property float32 y
property float32 z
element face 0
property list uint8 int32 vertex_indices
end_header
7.8360255967243155 2.66060821384493 126.069479
7.83602559672431 2.6606082138449283 122.31554899999999
7.83602559672432 2.660608213844932 113.556379
7.836025596724314 2.660608213844929 115.276931
7.836025596724314 2.660608213844929 130.44906399999996
7.836025596724303 2.660608213844926 109.802449
4.30029839814035 -7.070330042299955 114.651276
4.3002983981403515 -7.0703300422999575 109.333208
5.0821721974601255 -8.35584683690389 119.187274
4.300298398140346 -7.070330042299949 108.39472599999999
4.300298398140347 -7.07033004229995 119.343688
4.6912352978002465 -7.713088439601937 119.969343
4.300298398140352 -7.070330042299959 118.874447
4.691235297800243 -7.713088439601931 109.020381
4.300298398140347 -7.07033004229995 111.835828
4.3002983981403515 -7.0703300422999575 115.746172
4.691235297800247 -7.713088439601939 117.623137
4.300298398140354 -7.070330042299962 117.466723
4.6912352978002465 -7.713088439601937 119.03086
4.691235297800238 -7.713088439601922 108.863967
4.300298398140357 -7.070330042299966 128.572099
4.300298398140354 -7.070330042299962 111.053759
4.300298398140355 -7.070330042299964 116.528241
4.691235297800236 -7.713088439601919 120.125757
4.30029839814035 -7.070330042299955 128.728513
4.3002983981403515 -7.0703300422999575 109.17679399999999
4.300298398140349 -7.070330042299953 118.718033
4.300298398140346 -7.070330042299949 112.148656
4.691235297800235 -7.7130884396019175 108.70755299999999
4.300298398140354 -7.070330042299962 111.992242
4.300298398140352 -7.070330042299959 119.812929
4.300298398140355 -7.070330042299964 108.551139
4.300298398140349 -7.070330042299953 115.58975799999999
4.300298398140354 -7.070330042299962 120.594998
4.300298398140346 -7.070330042299949 112.305069
4.3002983981403435 -7.070330042299945 109.802449
4.300298398140346 -7.070330042299949 119.656515
-5.966525320029579 -5.734344672719237 128.884926
-5.966525320029585 -5.734344672719243 129.510581
-5.966525320029582 -5.734344672719241 117.153895
-5.96652532002959 -5.734344672719248 113.869207
-6.508937658522957 -6.255649642835625 129.197754
-5.9665253200295805 -5.7343446727192395 116.37182700000001
-5.966525320029582 -5.734344672719241 119.343688
-5.96652532002959 -5.734344672719248 118.874447
-5.966525320029588 -5.734344672719246 111.210173
-5.966525320029586 -5.734344672719245 125.13099700000001
-5.966525320029583 -5.734344672719242 107.769071
-5.9665253200295805 -5.7343446727192395 116.997482
-5.966525320029592 -5.734344672719251 119.50010199999998
-6.508937658522966 -6.255649642835634 119.03086
-5.966525320029595 -5.734344672719253 108.863967
-9.220995883190646 -8.86217116056388 106.83058799999999
-5.96652532002958 -5.734344672719239 121.68989399999998
-5.966525320029586 -5.734344672719245 128.728513
-5.966525320029579 -5.734344672719237 107.61265699999998
-6.5089376585229495 -6.255649642835618 129.823409
-5.9665253200295805 -5.7343446727192395 131.85678800000002
-6.508937658522953 -6.255649642835621 119.187274
-5.966525320029586 -5.734344672719245 111.523001
-6.50893765852295 -6.2556496428356185 120.125757
-5.966525320029591 -5.734344672719249 121.220653
-5.9665253200295885 -5.7343446727192475 109.17679399999999
-5.966525320029585 -5.734344672719243 118.718033
-5.966525320029592 -5.734344672719251 111.053759
-5.9665253200295805 -5.7343446727192395 129.979823
-5.96652532002959 -5.734344672719248 124.81816900000001
-5.9665253200295805 -5.7343446727192395 109.020381
-5.966525320029586 -5.734344672719245 111.36658699999998
-5.966525320029585 -5.734344672719243 122.002722
-5.9665253200295885 -5.7343446727192475 115.746172
-6.508937658522957 -6.255649642835625 111.835828
-7.59375886771054 -7.298256250214745 106.674175
-6.508937658522961 -6.255649642835628 126.382306
-5.966525320029594 -5.734344672719252 113.712793
-6.508937658522959 -6.255649642835627 120.28217000000001
-7.0513499970163345 -6.776954612952011 129.04134
-5.966525320029594 -5.734344672719252 107.925484
-5.966525320029586 -5.734344672719245 109.958863
-5.9665253200295805 -5.7343446727192395 112.305069
-5.96652532002959 -5.734344672719248 127.47720299999999
-6.894169730772705 4.5773963061324485 131.38754600000001
-7.520913526376026 4.993523968623944 112.774311
-7.520913526376025 4.993523968623943 109.333208
-6.894169730772707 4.577396306132449 114.33844799999999
-6.894169730772718 4.5773963061324565 113.869207
-7.520913526376041 4.993523968623954 119.656515
-6.894169730772713 4.577396306132453 119.18727399999999
-6.894169730772713 4.577396306132453 125.13099700000001
-7.520913526376038 4.993523968623951 132.16961500000002
-6.8941697307727114 4.577396306132452 131.231133
-8.147657321979347 5.40965163111544 119.343688
-6.894169730772718 4.5773963061324565 118.874447
-8.147657321979356 5.4096516311154454 111.21017300000001
-6.89416973077272 4.577396306132458 117.466723
-6.8941697307727114 4.577396306132452 128.415685
-7.52091352637603 4.993523968623947 111.835828
-6.89416973077271 4.577396306132451 107.769071
-7.5209135263760425 4.993523968623955 117.623137
-6.894169730772704 4.577396306132448 120.28217
-7.52091352637603 4.993523968623947 111.679414
-7.520913526376041 4.993523968623954 110.897346
-6.894169730772705 4.5773963061324485 129.04134
-8.14765732197934 5.409651631115436 110.740932
-6.894169730772723 4.57739630613246 122.15913499999999
-6.89416973077272 4.577396306132458 119.50010199999998
-6.894169730772722 4.577396306132459 113.712793
-6.894169730772718 4.5773963061324565 113.399966
-6.894169730772707 4.577396306132449 109.020381
-6.894169730772704 4.577396306132448 128.102858
-8.774397110628085 5.825776633182284 111.05375900000001
-6.894169730772705 4.5773963061324485 121.68989399999998
-6.894169730772707 4.577396306132449 124.97458299999998
-8.14765732197934 5.409651631115436 114.494862
-6.894169730772714 4.577396306132455 116.058999
-7.520913526376026 4.993523968623944 128.72851299999996
-7.520913526376025 4.993523968623943 114.182034
-6.894169730772707 4.577396306132449 121.53348
-8.14765732197935 5.409651631115443 110.584518
-6.894169730772707 4.577396306132449 108.081898
-6.894169730772718 4.5773963061324565 131.54396
-6.894169730772725 4.577396306132461 128.572099
-6.89416973077271 4.577396306132451 127.32078899999999
-6.89416973077271 4.577396306132451 129.82340900000003
-6.894169730772714 4.577396306132455 115.43334399999999
-6.894169730772707 4.577396306132449 129.979823
-7.520913526376021 4.993523968623941 109.802449
-6.894169730772705 4.5773963061324485 110.42810399999999
-6.894169730772709 4.57739630613245 119.969343
-6.8941697307727186 4.577396306132457 113.08713799999998
-6.894169730772713 4.577396306132453 111.523001
-6.894169730772714 4.577396306132455 110.271691
-6.894169730772709 4.57739630613245 123.723273
-6.894169730772707 4.577396306132449 109.646036
-6.894169730772723 4.57739630613246 123.566859
-7.520913526376021 4.993523968623941 128.884926
-7.5209135263760345 4.99352396862395 119.81292900000001
-7.520913526376027 4.993523968623945 110.11527699999999
-6.894169730772707 4.577396306132449 112.148656
-6.894169730772707 4.577396306132449 116.37182700000001
-6.894169730772713 4.577396306132453 109.958863
-6.894169730772722 4.577396306132459 121.846308
3.2393157353938338 8.426520958431038 122.002722
2.969372325987748 7.724309756201886 112.77431099999998
3.2393157353938395 8.426520958431054 117.153895
3.239315735393835 8.426520958431041 119.187274
2.9693723259877487 7.724309756201888 132.169615
2.96937232598775 7.724309756201891 116.37182700000001
3.2393157353938418 8.426520958431057 119.969343
2.9693723259877505 7.724309756201893 113.243552
3.5092591447999224 9.128732160660197 109.020381
2.9693723259877545 7.724309756201903 120.907825
3.2393157353938404 8.426520958431055 118.248792
2.9693723259877562 7.724309756201908 128.259271
3.509259144799925 9.128732160660203 129.04134
2.9693723259877527 7.724309756201897 114.651276
2.9693723259877545 7.724309756201903 131.54396
2.969372325987757 7.724309756201909 129.666995
2.96937232598775 7.724309756201891 116.997482
3.5092591447999206 9.128732160660192 119.50010200000001
3.239315735393841 8.426520958431057 131.38754600000001
3.239315735393839 8.426520958431052 119.81292900000001
3.2393157353938418 8.426520958431057 119.343688
2.9693723259877562 7.724309756201908 113.712793
3.239315735393835 8.426520958431041 108.863967
2.9693723259877527 7.724309756201897 111.36658699999998
3.2393157353938364 8.426520958431045 115.589758
2.96937232598775 7.724309756201891 108.39472599999999
2.9693723259877487 7.724309756201888 132.79527000000002
2.969372325987748 7.724309756201886 124.66175499999999
3.239315735393841 8.426520958431057 110.584518
2.969372325987756 7.724309756201906 116.684654
3.239315735393835 8.426520958431041 128.72851299999996
3.2393157353938418 8.426520958431057 119.03086
2.969372325987755 7.7243097562019045 113.556379
3.2393157353938378 8.426520958431048 127.946444
2.9693723259877562 7.724309756201908 108.551139
3.5092591447999193 9.128732160660189 122.159135
2.9693723259877514 7.724309756201895 129.82340900000003
2.96937232598775 7.724309756201891 129.979823
3.509259144799919 9.128732160660187 112.148656
2.969372325987749 7.724309756201889 110.42810399999999
2.9693723259877527 7.724309756201897 131.700374
2.969372325987755 7.7243097562019045 113.08713799999998
2.9693723259877487 7.724309756201888 127.164375
2.9693723259877545 7.724309756201903 110.115277
2.969372325987755 7.7243097562019045 118.561619
2.9693723259877527 7.724309756201897 110.89734599999998
3.2393157353938378 8.426520958431048 115.746172
2.9693723259877536 7.724309756201901 109.17679399999999
2.969372325987757 7.724309756201909 112.461483
2.969372325987757 7.724309756201909 108.707553
2.969372325987753 7.724309756201899 124.34892800000002
2.96937232598775 7.724309756201891 124.192514
2.9693723259877527 7.724309756201897 130.44906399999996
3.239315735393836 8.426520958431043 112.305069
2.9693723259877487 7.724309756201888 120.12575699999998
2.9693723259877545 7.724309756201903 116.841068
2.969372325987753 7.724309756201899 110.271691
2.969372325987755 7.7243097562019045 114.964103
3.239315735393836 8.426520958431043 110.740932
8.929165024978838 -1.3302006815299041 116.371827
8.185066750254975 -1.2193504475613306 124.03609999999999
8.185066750254977 -1.2193504475613308 131.38754600000001
8.929165024978822 -1.3302006815299017 109.333208
8.185066750254995 -1.2193504475613335 116.684654
8.929165024978838 -1.3302006815299041 113.869207
8.185066750254993 -1.2193504475613333 114.964103
8.929165024978841 -1.3302006815299046 119.656515
8.929165024978834 -1.3302006815299037 108.39472599999999
8.929165024978818 -1.3302006815299012 117.46672299999999
8.929165024978841 -1.3302006815299046 119.969343
8.185066750254991 -1.219350447561333 118.874447
8.929165024978834 -1.3302006815299037 126.382306
8.185066750254991 -1.219350447561333 113.399966
8.185066750254984 -1.219350447561332 128.415685
8.18506675025498 -1.2193504475613313 111.835828
8.185066750254979 -1.219350447561331 126.225893
8.185066750254997 -1.2193504475613337 121.846308
8.18506675025498 -1.2193504475613313 124.50534199999998
8.929165024978836 -1.330200681529904 116.215413
8.185066750254997 -1.2193504475613337 128.259271
8.185066750254975 -1.2193504475613306 120.28217
8.929165024978841 -1.3302006815299046 110.897346
9.673263299702683 -1.4410509154984747 129.04134
8.929165024978834 -1.3302006815299037 123.87968700000002
8.929165024978833 -1.3302006815299035 107.769071
8.185066750254979 -1.219350447561331 116.997482
8.185066750254991 -1.219350447561333 123.410445
8.929165024978827 -1.3302006815299026 119.50010199999998
8.185066750254995 -1.2193504475613335 125.28741
9.673263299702679 -1.4410509154984743 113.712793
8.185066750254977 -1.2193504475613308 122.94120399999998
8.18506675025498 -1.2193504475613313 129.354168
8.929165024978822 -1.3302006815299017 114.182034
8.18506675025498 -1.2193504475613313 119.343688
8.929165024978824 -1.3302006815299021 108.863967
8.185066750254988 -1.2193504475613324 118.092378
8.929165024978827 -1.3302006815299026 107.925484
8.185066750254975 -1.2193504475613306 132.79527000000002
8.185066750254997 -1.2193504475613337 107.143416
8.185066750254984 -1.219350447561332 115.58975799999999
8.185066750254997 -1.2193504475613337 117.62313699999999
8.929165024978824 -1.3302006815299021 128.72851299999996
8.929165024978827 -1.3302006815299026 115.12051699999999
8.185066750254988 -1.2193504475613324 123.09761799999998
8.929165024978827 -1.3302006815299026 114.494862
8.185066750254974 -1.2193504475613304 124.66175499999999
8.185066750254988 -1.2193504475613324 107.29983
8.929165024978841 -1.3302006815299046 119.03086
8.185066750254986 -1.2193504475613322 119.18727399999999
8.185066750254988 -1.2193504475613324 116.058999
8.185066750254975 -1.2193504475613306 120.12575699999998
8.929165024978834 -1.3302006815299037 121.22065299999998
8.185066750254979 -1.219350447561331 129.979823
8.929165024978845 -1.3302006815299052 131.074719
8.185066750254975 -1.2193504475613306 109.802449
8.185066750254986 -1.2193504475613322 114.651276
8.185066750254991 -1.219350447561333 125.443824
8.18506675025498 -1.2193504475613313 117.153895
8.929165024978818 -1.3302006815299012 108.70755299999999
8.185066750254993 -1.2193504475613333 121.37706699999998
8.185066750254975 -1.2193504475613306 127.164375
8.185066750254986 -1.2193504475613322 109.958863
8.929165024978818 -1.3302006815299012 117.310309
8.929165024978834 -1.3302006815299037 119.81292900000001
8.185066750254979 -1.219350447561331 114.025621
8.185066750254997 -1.2193504475613337 126.53872000000001
8.185066750254999 -1.219350447561334 130.605478
8.185066750254979 -1.219350447561331 121.064239
8.185066750254984 -1.219350447561332 127.63361599999999
8.185066750254974 -1.2193504475613304 130.761891
8.18506675025498 -1.2193504475613313 123.723273
8.185066750254979 -1.219350447561331 109.646036
8.929165024978836 -1.330200681529904 120.594998
8.185066750254986 -1.2193504475613322 130.44906399999996
8.185066750254991 -1.219350447561333 127.47720299999999
8.185066750254991 -1.219350447561333 120.907825
8.929165024978836 -1.330200681529904 130.918305
8.185066750254999 -1.219350447561334 123.566859
8.185066750254991 -1.219350447561333 132.32602900000003
9.673263299702688 -1.4410509154984756 108.081898
8.929165024978841 -1.3302006815299046 108.238312
8.18506675025498 -1.2193504475613313 120.751412
8.185066750254983 -1.2193504475613317 118.405205
8.185066750254997 -1.2193504475613337 116.528241
0.6425256949751968 -9.00480886125543 109.333208
0.5889818014801927 -8.254406923433251 117.153895
0.5889818014801936 -8.254406923433264 114.964103
0.6425256949751982 -9.004808861255448 119.656515
0.6425256949751977 -9.004808861255441 108.39472599999999
0.5889818014801936 -8.254406923433264 125.60023799999999
0.5889818014801924 -8.254406923433246 132.169615
0.6425256949751973 -9.004808861255436 129.197754
0.5889818014801924 -8.254406923433246 128.102858
0.5889818014801933 -8.254406923433258 122.628377
0.6960695884702023 -9.755210799077627 119.969343
0.6425256949751977 -9.004808861255441 118.87444699999999
0.5889818014801929 -8.254406923433253 126.382306
0.5889818014801935 -8.254406923433262 123.25403199999998
0.5889818014801926 -8.25440692343325 126.225893
0.6425256949751966 -9.004808861255427 128.884926
0.6425256949751982 -9.004808861255448 128.415685
0.6425256949751977 -9.004808861255441 117.935964
0.5889818014801925 -8.254406923433248 132.638856
0.5889818014801925 -8.254406923433248 115.120517
0.5889818014801936 -8.254406923433264 117.77955
0.6960695884702013 -9.755210799077613 110.897346
0.642525694975197 -9.004808861255432 129.04134
0.5889818014801925 -8.254406923433248 123.879687
0.6425256949751975 -9.004808861255437 114.651276
0.6960695884702025 -9.75521079907763 114.80768899999998
0.6425256949751972 -9.004808861255434 119.50010199999998
0.6425256949751982 -9.004808861255448 119.03086
0.5889818014801925 -8.254406923433248 131.38754600000001
0.5889818014801941 -8.254406923433269 108.863967
0.5889818014801926 -8.25440692343325 121.064239
0.6425256949751971 -9.004808861255434 128.572099
0.5889818014801924 -8.254406923433246 111.679414
0.5889818014801925 -8.254406923433248 121.68989399999998
0.5889818014801932 -8.254406923433256 115.276931
0.6425256949751973 -9.004808861255436 111.835828
0.5889818014801931 -8.254406923433255 107.456243
0.6425256949751968 -9.00480886125543 111.053759
0.6425256949751972 -9.004808861255434 114.494862
0.5889818014801929 -8.254406923433253 129.82340900000003
0.5889818014801926 -8.25440692343325 121.53348
0.5889818014801931 -8.254406923433255 131.231133
0.5889818014801926 -8.25440692343325 109.646036
0.6425256949751982 -9.004808861255448 119.343688
0.6960695884702013 -9.755210799077613 128.72851299999996
0.6425256949751977 -9.004808861255441 113.55637900000002
0.5889818014801934 -8.25440692343326 109.17679399999999
0.5889818014801924 -8.254406923433246 120.12575699999998
0.5889818014801933 -8.254406923433258 111.210173
0.5889818014801935 -8.254406923433262 124.81816900000001
0.6425256949751982 -9.004808861255448 115.433344
0.5889818014801935 -8.254406923433262 125.443824
0.5889818014801926 -8.25440692343325 114.33844799999999
0.5889818014801935 -8.254406923433262 131.54396
0.5889818014801933 -8.254406923433258 126.069479
0.5889818014801926 -8.25440692343325 126.69513400000001
0.6425256949751977 -9.004808861255441 111.366587
0.6425256949751966 -9.004808861255427 108.70755299999999
0.5889818014801924 -8.254406923433246 124.03609999999999
0.6425256949751976 -9.00480886125544 127.164375
0.6425256949751972 -9.004808861255434 115.589758
0.5889818014801935 -8.254406923433262 125.91306499999999
0.6425256949751977 -9.004808861255441 119.81292900000001
0.5889818014801926 -8.25440692343325 114.025621
0.5889818014801941 -8.254406923433269 120.438584
0.588981801480194 -8.254406923433267 126.53872000000001
0.6425256949751972 -9.004808861255434 130.60547800000003
0.5889818014801935 -8.254406923433262 110.115277
0.6425256949751981 -9.004808861255446 112.148656
0.6425256949751982 -9.004808861255448 108.238312
0.5889818014801927 -8.254406923433251 120.751412
0.6425256949751978 -9.004808861255443 130.918305
0.6425256949751985 -9.004808861255452 131.074719
0.5889818014801942 -8.25440692343327 132.48244300000002
0.6425256949751967 -9.004808861255428 107.61265699999998
0.5889818014801923 -8.254406923433244 130.761891
0.5889818014801926 -8.25440692343325 124.192514
-8.649835114975602 -2.5845259488314234 116.371827
-8.649835114975582 -2.5845259488314176 124.974583
-7.929014369957022 -2.3691484421861104 116.841068
-7.929014369957015 -2.3691484421861086 122.002722
-8.649835114975582 -2.584525948831418 129.510581
-8.649835114975586 -2.584525948831419 110.27169099999999
-7.92901436995702 -2.36914844218611 109.333208
-7.9290143699570255 -2.3691484421861118 116.684654
-7.929014369957022 -2.3691484421861104 113.869207
-9.37065585999417 -2.799903455476733 108.394726
-8.649835114975602 -2.5845259488314234 132.16961500000002
-8.649835114975602 -2.5845259488314234 118.248792
-7.929014369957009 -2.3691484421861064 127.79003000000002
-8.649835114975597 -2.584525948831422 132.013201
-9.37065585999418 -2.799903455476736 119.969343
-9.370655859994173 -2.799903455476734 113.243552
-7.9290143699570095 -2.369148442186107 109.020381
-8.649835114975598 -2.5845259488314225 126.382306
-7.929014369957022 -2.3691484421861104 120.907825
-7.929014369957017 -2.369148442186109 125.13099700000001
-7.929014369957018 -2.3691484421861095 118.092378
-7.929014369957018 -2.3691484421861095 112.617897
-7.929014369957009 -2.3691484421861064 110.42810399999999
-7.929014369957009 -2.3691484421861064 115.120517
-8.649835114975607 -2.584525948831425 117.623137
-7.929014369957007 -2.369148442186106 120.28217
-8.649835114975586 -2.584525948831419 116.528241
-8.649835114975605 -2.5845259488314247 110.897346
-8.649835114975593 -2.584525948831421 124.505342
-7.929014369957029 -2.3691484421861126 129.666995
-7.9290143699570095 -2.369148442186107 131.85678800000002
-7.929014369957027 -2.369148442186112 106.987002
-7.9290143699570255 -2.3691484421861118 119.03086
-8.649835114975602 -2.5845259488314234 107.143416
-7.929014369957029 -2.3691484421861126 108.863967
-7.929014369957017 -2.369148442186109 111.36658699999998
-7.92901436995703 -2.369148442186113 128.572099
-7.929014369957007 -2.369148442186106 111.679414
-7.929014369957018 -2.3691484421861095 123.09761799999998
-8.649835114975593 -2.584525948831421 107.456243
-7.929014369957005 -2.3691484421861055 124.66175499999999
-8.649835114975582 -2.5845259488314176 126.22589299999999
-7.9290143699570095 -2.369148442186107 121.53348
-7.929014369957015 -2.3691484421861086 131.231133
-7.9290143699570255 -2.3691484421861118 119.50010199999998
-8.64983511497558 -2.5845259488314167 131.700374
-7.929014369957011 -2.3691484421861073 119.343688
-8.649835114975593 -2.584525948831421 123.41044499999998
-8.649835114975602 -2.5845259488314234 107.29983
-7.929014369957017 -2.369148442186109 128.728513
-7.929014369957024 -2.369148442186111 113.556379
-7.929014369957018 -2.3691484421861095 129.197754
-7.929014369957015 -2.3691484421861086 127.946444
-7.929014369957017 -2.369148442186109 111.523001
-8.649835114975604 -2.584525948831424 108.08189799999998
-8.6498351149756 -2.584525948831423 108.55113899999999
-9.37065585999417 -2.799903455476733 124.818169
-8.649835114975602 -2.5845259488314234 124.19251399999999
-7.929014369957017 -2.369148442186109 116.215413
-7.929014369957017 -2.369148442186109 106.674175
-8.649835114975586 -2.584525948831419 118.718033
-7.929014369957013 -2.369148442186108 127.32078899999999
-9.370655859994176 -2.799903455476735 131.074719
-8.649835114975582 -2.584525948831418 109.802449
-8.6498351149756 -2.584525948831423 113.087138
-9.37065585999418 -2.799903455476736 119.656515
-9.370655859994171 -2.7999034554767337 108.707553
-7.929014369957007 -2.369148442186106 127.164375
-8.649835114975605 -2.5845259488314247 108.238312
-9.370655859994164 -2.799903455476731 119.812929
-8.649835114975591 -2.5845259488314203 114.494862
-7.929014369957027 -2.369148442186112 126.53872000000001
-8.64983511497559 -2.58452594883142 110.11527699999999
-7.9290143699570095 -2.369148442186107 114.025621
-7.929014369957015 -2.3691484421861086 127.63361599999999
-7.929014369957024 -2.369148442186111 118.561619
-8.649835114975588 -2.5845259488314194 112.461483
-7.929014369957029 -2.3691484421861126 123.566859
-8.649835114975584 -2.5845259488314185 123.723273
-7.929014369957029 -2.3691484421861126 130.605478
-7.929014369957011 -2.3691484421861073 129.354168
-7.9290143699570255 -2.3691484421861118 111.992242
-8.649835114975597 -2.584525948831422 120.438584
-8.649835114975605 -2.5845259488314247 124.34892800000002
-7.929014369957017 -2.369148442186109 109.958863
-7.929014369957017 -2.369148442186109 130.44906399999996
-7.929014369957024 -2.369148442186111 106.83058799999999
-8.649835114975588 -2.5845259488314194 127.47720299999999
-8.649835114975604 -2.584525948831424 112.148656
-8.649835114975593 -2.584525948831421 120.751412
-9.37065585999417 -2.799903455476733 120.125757
-8.6498351149756 -2.584525948831423 130.918305
-7.92901436995703 -2.369148442186113 132.48244300000002
-7.929014369957013 -2.369148442186108 109.48962199999998
-7.929014369957017 -2.369148442186109 130.29265000000004
-7.929014369957017 -2.369148442186109 114.651276
-7.929014369957027 -2.369148442186112 121.846308
-8.649835114975597 -2.584525948831422 116.99748199999999
-4.402931983944273 7.881218931181148 124.974583
-4.402931983944284 7.8812189311811665 116.371827
-4.036020398839246 7.2244496371869795 110.740932
-4.036020398839253 7.224449637186992 116.841068
-4.036020398839253 7.224449637186992 123.25403199999998
-4.036020398839244 7.224449637186977 112.77431099999998
-4.76984356904931 8.537988225175333 110.27169099999999
-4.769843569049308 8.53798822517533 109.33320800000001
-4.402931983944286 7.88121893118117 116.684654
-4.76984356904931 8.537988225175333 114.96410300000001
-4.402931983944286 7.88121893118117 119.656515
-4.03602039883925 7.2244496371869875 119.18727399999999
-4.769843569049308 8.537988225175331 108.394726
-4.402931983944275 7.881218931181151 123.097618
-4.4029319839442795 7.881218931181159 129.197754
-4.402931983944286 7.88121893118117 119.969343
-4.402931983944282 7.881218931181164 118.87444699999999
-4.036020398839247 7.224449637186981 109.020381
-4.402931983944284 7.8812189311811665 109.489622
-4.402931983944282 7.881218931181164 126.382306
-4.036020398839247 7.224449637186981 126.225893
-4.036020398839253 7.224449637186992 120.907825
-4.036020398839245 7.224449637186979 128.884926
-4.03602039883925 7.2244496371869875 125.13099700000001
-4.402931983944287 7.881218931181172 118.092378
-4.402931983944282 7.881218931181164 117.935964
-4.036020398839246 7.2244496371869795 132.638856
-4.402931983944283 7.881218931181166 116.215413
-4.402931983944279 7.881218931181158 115.12051699999999
-4.402931983944287 7.881218931181172 117.77955
-4.402931983944287 7.881218931181172 117.623137
-4.03602039883925 7.2244496371869875 115.276931
-4.402931983944281 7.881218931181162 120.28217000000001
-4.036020398839247 7.224449637186981 114.33844799999999
-4.769843569049307 8.537988225175328 110.897346
-4.0360203988392565 7.224449637186998 122.15913499999999
-4.03602039883925 7.2244496371869875 114.651276
-4.402931983944282 7.881218931181164 112.617897
-4.402931983944281 7.881218931181162 121.689894
-4.769843569049307 8.537988225175328 119.50010200000001
-4.036020398839248 7.224449637186983 129.354168
-4.036020398839256 7.224449637186997 107.143416
-4.036020398839253 7.224449637186992 113.399966
-4.036020398839248 7.224449637186983 119.343688
-4.402931983944285 7.881218931181168 113.71279299999999
-4.402931983944277 7.881218931181154 108.863967
-4.036020398839248 7.224449637186983 113.243552
-4.769843569049309 8.537988225175333 115.58975799999999
-4.036020398839245 7.224449637186979 132.79527000000002
-4.036020398839255 7.2244496371869955 125.28741
-4.036020398839249 7.224449637186986 107.456243
-4.036020398839254 7.224449637186994 115.90258600000001
-4.0360203988392485 7.224449637186985 129.82340900000003
-4.036020398839245 7.224449637186979 107.61265699999998
-4.402931983944272 7.881218931181147 131.700374
-4.036020398839255 7.2244496371869955 119.03086
-4.036020398839254 7.224449637186994 113.556379
-4.402931983944282 7.881218931181164 109.176794
-4.402931983944286 7.88121893118117 116.058999
-4.03602039883925 7.2244496371869875 111.523001
-4.036020398839249 7.224449637186986 127.946444
-4.036020398839256 7.224449637186997 108.551139
-4.036020398839253 7.224449637186992 124.81816900000001
-4.769843569049306 8.537988225175326 115.433344
-4.0360203988392485 7.224449637186985 127.32078899999999
-4.402931983944278 7.881218931181156 111.210173
-4.402931983944274 7.88121893118115 122.78479
-4.036020398839251 7.224449637186989 126.069479
-4.402931983944274 7.88121893118115 109.802449
-4.036020398839246 7.2244496371869795 127.79003000000002
-4.402931983944274 7.88121893118115 108.70755299999999
-4.036020398839245 7.224449637186979 124.03609999999999
-4.036020398839254 7.224449637186994 121.37706699999998
-4.036020398839254 7.224449637186994 118.561619
-4.769843569049309 8.537988225175333 110.11527699999999
-4.402931983944279 7.881218931181158 107.925484
-4.03602039883925 7.2244496371869875 108.238312
-4.036020398839251 7.224449637186989 122.628377
-4.036020398839253 7.224449637186992 113.869207
-4.036020398839256 7.224449637186997 126.53872000000001
-4.402931983944282 7.881218931181164 122.471963
-4.036020398839244 7.224449637186977 127.007961
-4.0360203988392565 7.224449637186998 130.605478
-4.402931983944283 7.881218931181166 123.566859
-4.036020398839248 7.224449637186983 123.723273
-4.03602039883925 7.2244496371869875 111.36658699999998
-4.036020398839245 7.224449637186979 132.169615
-4.402931983944276 7.881218931181153 118.718033
-4.402931983944281 7.881218931181162 120.438584
-4.03602039883925 7.2244496371869875 109.958863
-4.0360203988392565 7.224449637186998 112.461483
-4.036020398839251 7.224449637186989 107.29983
-4.402931983944278 7.881218931181156 112.305069
-4.402931983944275 7.881218931181151 120.125757
-4.402931983944283 7.881218931181166 130.918305
-4.769843569049305 8.537988225175324 119.812929
-4.036020398839253 7.224449637186992 132.32602900000003
-4.402931983944285 7.881218931181168 112.148656
-5.136752808382314 9.194753320253202 110.58451800000002
-4.036020398839252 7.224449637186991 131.07471900000002
-4.036020398839251 7.224449637186989 124.34892800000002
-4.036020398839257 7.224449637187 128.572099
-4.036020398839247 7.224449637186981 109.646036
-4.036020398839246 7.2244496371869795 129.04134
-4.036020398839257 7.224449637187 132.48244300000002
-4.036020398839256 7.224449637186997 116.528241
-4.036020398839256 7.224449637186997 121.846308
6.735716186435303 6.010786084385388 124.974583
6.174405607077092 5.509886443420825 116.37182700000001
6.735716186435305 6.01078608438539 128.884926
6.7357161864353206 6.010786084385404 131.38754600000001
7.2970267657935395 6.511685725349974 112.774311
6.174405607077101 5.509886443420834 113.869207
6.174405607077102 5.509886443420835 114.964103
6.7357161864353134 6.010786084385398 106.830588
6.174405607077092 5.509886443420825 119.656515
6.735716186435316 6.0107860843854 108.39472599999999
6.174405607077089 5.5098864434208235 132.169615
7.297026765793532 6.511685725349967 129.197754
7.297026765793527 6.511685725349962 106.98700200000002
6.174405607077103 5.509886443420836 117.466723
6.17440560707709 5.509886443420824 127.79003000000002
6.174405607077095 5.509886443420829 131.231133
7.297026765793536 6.51168572534997 119.969343
6.174405607077098 5.5098864434208314 122.628377
6.174405607077101 5.509886443420834 118.874447
6.735716186435316 6.0107860843854 126.382306
7.297026765793525 6.5116857253499605 106.674175
6.174405607077092 5.509886443420825 126.225893
7.297026765793534 6.511685725349969 111.21017300000001
6.174405607077097 5.509886443420831 125.13099700000001
6.174405607077098 5.5098864434208314 118.092378
6.174405607077103 5.509886443420836 117.935964
6.174405607077097 5.509886443420831 108.238312
6.174405607077097 5.509886443420831 116.215413
6.17440560707709 5.509886443420824 115.120517
6.735716186435323 6.010786084385406 117.77955
6.735716186435313 6.010786084385397 111.679414
6.735716186435321 6.010786084385405 110.897346
6.735716186435316 6.0107860843854 123.87968700000002
6.174405607077106 5.5098864434208386 122.15913499999999
6.1744056070770945 5.509886443420828 107.769071
6.174405607077103 5.509886443420836 116.684654
7.297026765793523 6.511685725349959 112.617897
6.174405607077103 5.509886443420836 119.50010199999998
6.735716186435321 6.010786084385405 118.405205
6.17440560707709 5.509886443420824 122.94120399999998
6.735716186435313 6.010786084385397 129.35416800000002
6.174405607077093 5.509886443420827 119.343688
6.7357161864353206 6.010786084385404 113.71279299999999
6.735716186435308 6.010786084385393 108.863967
6.735716186435316 6.0107860843854 111.366587
6.735716186435311 6.010786084385395 115.589758
7.297026765793525 6.5116857253499605 111.053759
7.297026765793523 6.511685725349959 107.925484
6.17440560707709 5.509886443420824 121.68989399999998
6.735716186435323 6.010786084385406 132.79527
6.174405607077087 5.509886443420822 127.007961
6.1744056070770945 5.509886443420828 122.31554899999999
6.735716186435311 6.010786084385395 114.494862
6.1744056070770945 5.509886443420828 129.82340900000003
6.174405607077097 5.509886443420831 131.700374
6.174405607077102 5.509886443420835 125.60023799999999
6.174405607077092 5.509886443420825 131.85678800000002
6.174405607077095 5.509886443420829 129.510581
6.735716186435308 6.010786084385393 128.72851299999996
6.735716186435308 6.010786084385393 119.187274
7.297026765793525 6.5116857253499605 111.523001
6.7357161864353134 6.010786084385398 127.946444
6.735716186435321 6.010786084385405 115.433344
6.735716186435305 6.01078608438539 127.320789
6.735716186435324 6.0107860843854075 131.074719
7.297026765793527 6.511685725349962 107.45624300000001
6.174405607077102 5.509886443420835 113.08713799999998
6.735716186435316 6.0107860843854 109.176794
6.735716186435316 6.0107860843854 109.020381
6.174405607077089 5.5098864434208235 120.28217
7.297026765793528 6.511685725349963 120.125757
6.735716186435305 6.01078608438539 108.70755299999999
7.297026765793537 6.511685725349971 112.93072400000001
6.174405607077089 5.5098864434208235 127.164375
6.174405607077093 5.509886443420827 117.31030899999999
7.297026765793539 6.511685725349973 128.102858
6.735716186435324 6.0107860843854075 126.53872
6.735716186435316 6.0107860843854 119.81292900000001
6.174405607077102 5.509886443420835 130.918305
6.174405607077095 5.509886443420829 128.415685
6.174405607077098 5.5098864434208314 107.29983
7.297026765793534 6.511685725349969 108.55113899999999
6.735716186435307 6.0107860843853915 110.27169099999999
6.174405607077104 5.509886443420837 107.143416
6.1744056070770865 5.509886443420821 125.75665099999999
6.7357161864353206 6.010786084385404 127.633616
6.174405607077092 5.509886443420825 121.064239
6.174405607077092 5.509886443420825 114.025621
7.297026765793539 6.511685725349973 112.305069
6.174405607077101 5.509886443420834 110.115277
6.17440560707709 5.509886443420824 110.42810399999999
6.174405607077098 5.5098864434208314 124.34892800000002
7.297026765793525 6.5116857253499605 112.461483
6.735716186435308 6.010786084385393 127.47720299999999
6.735716186435305 6.01078608438539 132.326029
6.174405607077092 5.509886443420825 112.148656
6.7357161864353206 6.010786084385404 110.584518
6.735716186435321 6.010786084385405 130.76189100000002
7.858333756530648 7.012582163918059 107.612657
6.174405607077103 5.509886443420836 111.992242
6.735716186435315 6.010786084385399 120.438584
7.297026765793539 6.511685725349973 108.081898
6.174405607077097 5.509886443420831 130.29265000000004
6.735716186435323 6.010786084385406 117.623137
6.174405607077104 5.509886443420837 121.846308
6.174405607077093 5.509886443420827 123.723273
6.17440560707709 5.509886443420824 129.04134
7.331199305980247 -5.268105791690473 116.371827
7.942133557948486 -5.707115309343415 110.740932
7.942133557948492 -5.707115309343419 128.884926
9.163998156005407 -6.585131537934345 114.80768899999998
7.331199305980232 -5.268105791690463 116.841068
8.553063904037145 -6.146122020281387 109.333208
7.331199305980245 -5.2681057916904726 117.153895
6.720265054011993 -4.829096274037521 116.684654
6.720265054011992 -4.8290962740375205 106.83058799999999
6.72026505401199 -4.829096274037519 123.25403199999998
6.7202650540119855 -4.829096274037516 125.13099700000001
7.942133557948497 -5.707115309343423 129.197754
7.942133557948504 -5.707115309343428 127.79002999999999
7.9421335579485035 -5.707115309343427 131.231133
7.331199305980243 -5.26810579169047 132.013201
7.942133557948504 -5.707115309343428 128.102858
8.553063904037149 -6.146122020281389 113.556379
7.942133557948502 -5.707115309343426 119.969343
8.553063904037142 -6.146122020281385 113.24355200000001
7.331199305980244 -5.268105791690471 109.020381
7.942133557948501 -5.7071153093434255 109.489622
7.331199305980244 -5.268105791690471 126.382306
7.942133557948492 -5.707115309343419 113.399966
7.331199305980229 -5.268105791690461 126.22589299999999
6.720265054011987 -4.829096274037517 111.210173
6.720265054011987 -4.829096274037517 116.058999
6.720265054011985 -4.829096274037515 128.415685
7.33119930598025 -5.268105791690475 108.238312
6.720265054011978 -4.829096274037511 132.638856
6.7202650540119855 -4.829096274037516 116.215413
7.9421335579484875 -5.707115309343416 115.120517
6.720265054011992 -4.8290962740375205 117.77955
7.331199305980244 -5.268105791690471 115.276931
6.720265054011978 -4.829096274037511 123.879687
6.720265054011996 -4.829096274037523 122.15913499999999
8.553063904037156 -6.146122020281394 114.651276
8.55306390403715 -6.146122020281391 112.617897
6.72026505401198 -4.829096274037512 131.85678800000002
6.72026505401198 -4.829096274037512 114.33844799999999
8.553063904037156 -6.146122020281394 119.50010199999998
6.720265054011993 -4.829096274037521 125.28741
7.331199305980232 -5.268105791690463 122.941204
7.331199305980239 -5.268105791690468 129.35416800000002
6.720265054011994 -4.829096274037522 107.143416
6.720265054011981 -4.8290962740375125 117.31030899999999
6.720265054011978 -4.829096274037511 131.38754600000001
6.720265054011996 -4.829096274037523 108.863967
6.720265054011997 -4.829096274037524 128.572099
6.720265054011993 -4.829096274037521 117.935964
7.331199305980234 -5.268105791690464 111.053759
7.942133557948506 -5.707115309343429 112.774311
7.331199305980244 -5.268105791690471 108.39472599999999
6.720265054011978 -4.829096274037511 121.68989399999998
6.7202650540119775 -4.82909627403751 132.79527000000002
7.331199305980229 -5.268105791690461 124.974583
7.331199305980236 -5.268105791690465 128.72851299999996
7.331199305980232 -5.268105791690463 123.097618
6.720265054011992 -4.8290962740375205 115.90258600000001
7.331199305980238 -5.268105791690467 114.494862
7.331199305980231 -5.268105791690462 129.823409
6.72026505401198 -4.829096274037512 121.53348
8.55306390403714 -6.146122020281383 109.646036
7.331199305980228 -5.26810579169046 131.700374
8.553063904037156 -6.146122020281394 119.187274
6.720265054011985 -4.829096274037515 129.510581
7.331199305980244 -5.268105791690471 109.176794
7.3311993059802365 -5.268105791690466 111.523001
7.331199305980245 -5.2681057916904726 108.55113899999999
7.942133557948489 -5.707115309343417 115.433344
6.720265054011985 -4.829096274037515 118.718033
6.720265054011983 -4.829096274037514 127.32078899999999
6.7202650540119855 -4.829096274037516 130.29265000000004
6.72026505401198 -4.829096274037512 108.081898
6.720265054011992 -4.8290962740375205 121.37706699999998
7.942133557948499 -5.707115309343425 131.074719
7.331199305980248 -5.268105791690474 112.148656
6.72026505401199 -4.829096274037519 124.81816900000001
6.720265054011981 -4.8290962740375125 119.343688
7.331199305980245 -5.2681057916904726 129.66699500000001
6.720265054011992 -4.8290962740375205 113.08713799999998
7.331199305980243 -5.26810579169047 120.28217000000001
7.331199305980234 -5.268105791690464 126.69513399999998
7.331199305980244 -5.268105791690471 111.366587
7.942133557948495 -5.707115309343421 108.707553
7.331199305980248 -5.268105791690474 118.561619
6.720265054011976 -4.829096274037509 130.13623600000003
7.942133557948495 -5.707115309343421 110.11527699999999
6.720265054011994 -4.829096274037522 107.925484
6.72026505401199 -4.829096274037519 113.869207
7.9421335579484875 -5.707115309343416 119.812929
7.331199305980234 -5.268105791690464 110.27169099999999
6.72026505401198 -4.829096274037512 116.997482
7.331199305980245 -5.2681057916904726 112.93072399999998
7.3311993059802525 -5.268105791690477 126.53872
7.33119930598025 -5.268105791690475 110.897346
6.720265054011989 -4.829096274037518 115.746172
6.720265054011996 -4.829096274037523 130.605478
7.331199305980248 -5.268105791690474 113.71279299999999
6.72026505401198 -4.829096274037512 114.025621
7.33119930598025 -5.268105791690475 119.656515
7.331199305980245 -5.2681057916904726 123.566859
6.720265054011981 -4.8290962740375125 123.723273
6.7202650540119775 -4.82909627403751 132.169615
6.720265054011993 -4.829096274037521 120.594998
6.720265054011983 -4.829096274037514 122.31554899999999
7.33119930598025 -5.268105791690475 109.958863
7.94213355794849 -5.707115309343418 112.461483
6.720265054011987 -4.829096274037517 107.29983
7.331199305980236 -5.268105791690465 127.47720299999999
7.942133557948496 -5.707115309343422 120.90782499999999
6.7202650540119775 -4.82909627403751 120.12575699999998
6.72026505401199 -4.829096274037519 132.32602900000003
7.331199305980248 -5.268105791690474 110.584518
6.720265054011987 -4.829096274037517 124.34892800000002
6.720265054011981 -4.8290962740375125 120.751412
6.720265054011981 -4.8290962740375125 126.85154799999998
6.7202650540119775 -4.82909627403751 107.61265699999998
7.331199305980243 -5.26810579169047 107.769071
7.331199305980243 -5.26810579169047 120.438584
8.553063904037145 -6.146122020281386 114.964103
6.720265054011992 -4.8290962740375205 130.918305
7.331199305980232 -5.268105791690463 130.449064
7.942133557948486 -5.707115309343415 111.992242
7.942133557948504 -5.707115309343428 112.305069
-3.8442847675749707 -8.992781840577745 129.354168
-3.5485701183947205 -8.30102837070707 124.974583
-3.844284767574966 -8.992781840577734 116.37182699999998
-3.844284767574963 -8.992781840577727 122.002722
-3.25285546921448 -7.609274900836415 131.38754600000001
-3.8442847675749734 -8.992781840577752 112.774311
-3.8442847675749685 -8.99278184057774 110.27169099999999
-3.2528554692144813 -7.609274900836419 117.153895
-3.5485701183947302 -8.301028370707092 116.684654
-3.548570118394729 -8.301028370707089 113.869207
-3.844284767574971 -8.992781840577747 106.830588
-3.548570118394728 -8.301028370707087 125.130997
-3.8442847675749694 -8.992781840577742 129.197754
-4.139997526165816 -9.684530887868124 106.987002
-3.5485701183947245 -8.301028370707078 127.79003
-3.252855469214481 -7.609274900836417 114.025621
-3.548570118394723 -8.301028370707076 131.231133
-3.5485701183947227 -8.301028370707074 128.102858
-3.844284767574967 -8.992781840577738 113.556379
-3.5485701183947302 -8.301028370707092 122.628377
-4.139997526165821 -9.684530887868137 119.96934299999998
-3.5485701183947276 -8.301028370707085 118.87444699999999
-3.5485701183947276 -8.301028370707085 126.382306
-4.13999752616582 -9.684530887868135 106.674175
-3.8442847675749707 -8.992781840577745 111.21017300000001
-3.252855469214484 -7.609274900836425 116.058999
-4.435712175346063 -10.376284357738793 128.884926
-3.844284767574963 -8.992781840577727 117.466723
-3.8442847675749685 -8.99278184057774 128.415685
-3.2528554692144813 -7.609274900836419 111.835828
-3.252855469214487 -7.609274900836431 117.935964
-3.844284767574971 -8.992781840577747 108.238312
-3.5485701183947254 -8.30102837070708 124.505342
-3.548570118394723 -8.301028370707076 112.461483
-3.844284767574971 -8.992781840577747 116.215413
-3.5485701183947307 -8.301028370707094 117.77955
-3.2528554692144875 -7.609274900836433 128.259271
-4.435712175346059 -10.376284357738784 107.29983
-3.252855469214479 -7.609274900836414 120.28217
-3.8442847675749694 -8.992781840577742 115.74617200000002
-3.5485701183947302 -8.301028370707092 110.897346
-3.548570118394723 -8.301028370707076 129.04134
-3.8442847675749645 -8.992781840577731 122.159135
-4.139997526165822 -9.684530887868139 114.651276
-3.8442847675749645 -8.992781840577731 112.617897
-3.252855469214482 -7.60927490083642 109.48962199999998
-3.5485701183947227 -8.301028370707074 116.528241
-3.252855469214481 -7.609274900836417 114.33844799999999
-3.844284767574973 -8.99278184057775 114.80768899999998
-3.5485701183947254 -8.30102837070708 123.41044499999998
-4.139997526165822 -9.684530887868139 119.50010199999998
-3.5485701183947267 -8.301028370707083 132.013201
-3.5485701183947302 -8.301028370707092 118.405205
-3.25285546921448 -7.609274900836415 122.94120399999998
-3.844284767574967 -8.992781840577738 107.143416
-3.84428476757497 -8.992781840577743 117.31030900000002
-3.2528554692144858 -7.609274900836429 114.182034
-4.139997526165819 -9.684530887868132 113.39996600000002
-3.844284767574967 -8.992781840577738 119.343688
-3.8442847675749694 -8.992781840577742 113.712793
-3.548570118394723 -8.301028370707076 108.863967
-4.435712175346059 -10.376284357738784 106.517761
-4.13999752616582 -9.684530887868135 115.589758
-3.844284767574966 -8.992781840577734 111.053759
-3.8442847675749645 -8.992781840577731 107.925484
-3.844284767574967 -8.992781840577738 108.394726
-3.844284767574968 -8.992781840577738 115.276931
-3.252855469214485 -7.609274900836427 109.333208
-3.548570118394723 -8.301028370707076 128.72851299999996
-3.548570118394723 -8.301028370707076 125.28741
-3.2528554692144858 -7.609274900836429 127.47720299999999
-3.548570118394722 -8.301028370707073 123.097618
-4.4357121753460635 -10.376284357738795 107.456243
-3.5485701183947294 -8.30102837070709 115.90258599999999
-3.2528554692144787 -7.609274900836412 124.66175499999999
-3.252855469214482 -7.60927490083642 129.82340900000003
-3.252855469214481 -7.609274900836417 121.53348
-3.252855469214481 -7.609274900836417 109.646036
-3.8442847675749685 -8.99278184057774 110.584518
-3.5485701183947267 -8.301028370707083 131.856788
-3.5485701183947276 -8.301028370707085 109.176794
-3.548570118394724 -8.301028370707076 111.523001
-3.84428476757497 -8.992781840577743 106.361347
-3.252855469214479 -7.609274900836414 120.12575699999998
-3.252855469214486 -7.6092749008364295 121.220653
-3.8442847675749707 -8.992781840577745 108.55113899999999
-3.2528554692144858 -7.609274900836429 124.81816900000001
-3.252855469214481 -7.609274900836417 124.192514
-3.252855469214484 -7.609274900836425 115.43334399999999
-3.2528554692144835 -7.609274900836423 130.29265000000004
-3.8442847675749707 -8.992781840577745 122.471963
-3.5485701183947294 -8.30102837070709 108.08189799999998
-3.548570118394721 -8.301028370707071 122.78479
-3.5485701183947316 -8.301028370707096 131.074719
-3.252855469214479 -7.609274900836414 109.802449
-3.252855469214481 -7.609274900836417 112.148656
-3.5485701183947307 -8.301028370707094 126.069479
-3.844284767574963 -8.992781840577727 119.187274
-3.2528554692144884 -7.609274900836435 129.666995
-3.844284767574971 -8.992781840577747 119.656515
-3.5485701183947227 -8.301028370707074 126.69513399999998
-3.548570118394721 -8.301028370707071 108.70755299999999
-3.252855469214486 -7.6092749008364295 118.561619
-4.139997526165814 -9.68453088786812 109.958863
-3.8442847675749645 -8.992781840577731 119.812929
-3.2528554692144875 -7.609274900836433 126.53872000000001
-3.548570118394722 -8.301028370707073 123.723273
-3.5485701183947267 -8.301028370707083 120.438584
-3.5485701183947294 -8.30102837070709 127.633616
-3.548570118394721 -8.301028370707071 126.851548
-4.139997526165822 -9.684530887868139 112.930724
-3.25285546921448 -7.609274900836415 123.879687
-3.252855469214486 -7.6092749008364295 113.08713799999998
-3.5485701183947267 -8.301028370707083 106.204933
-3.25285546921448 -7.609274900836415 132.638856
-3.2528554692144787 -7.609274900836412 127.007961
-3.844284767574968 -8.992781840577738 111.366587
-3.548570118394728 -8.301028370707087 121.064239
-3.844284767574973 -8.99278184057775 132.169615
-3.2528554692144827 -7.6092749008364216 118.718033
-3.5485701183947267 -8.301028370707083 111.99224200000002
-3.252855469214487 -7.609274900836431 120.594998
-3.252855469214482 -7.60927490083642 122.31554899999999
-3.5485701183947302 -8.301028370707092 124.34892800000002
-3.8442847675749663 -8.992781840577736 110.428104
-3.252855469214481 -7.609274900836417 112.305069
-3.2528554692144884 -7.609274900836435 123.566859
-3.8442847675749645 -8.992781840577731 132.326029
-3.5485701183947254 -8.30102837070708 120.751412
-3.252855469214482 -7.60927490083642 127.32078899999999
-3.5485701183947294 -8.30102837070709 132.482443
-3.252855469214486 -7.6092749008364295 130.918305
-3.5485701183947302 -8.301028370707092 119.03086
-4.139997526165817 -9.684530887868126 110.11527699999999
-3.844284767574967 -8.992781840577738 107.61265699999998
-4.139997526165814 -9.68453088786812 107.769071
-3.25285546921448 -7.609274900836415 110.740932
-3.2528554692144858 -7.609274900836429 125.443824
-3.8442847675749685 -8.99278184057774 117.62313699999999
-3.252855469214481 -7.609274900836417 116.997482
-3.5485701183947267 -8.301028370707083 121.689894
-9.613387682960541 1.7976172739313454 129.354168
-9.613387682960528 1.7976172739313432 124.974583
-9.613387682960528 1.7976172739313432 116.37182699999998
