ply
format ascii 1.0
element vertex 877
property float32 x
property float32 y
property float32 z
element face 0
property list uint8 int32 vertex_indices
end_header
-284.7835152175788 -172.15494848887326 150.210064
-325.98762970090957 -197.0633151160213 156.466613
-119.96706551645123 -72.52148695673907 125.340278
-22.75110893636708 -13.753310067868885 108.760421
-58.16089379145504 -35.15893701601699 78.103327
-55.585636636246846 -33.60216410182023 116.11186700000002
-60.092335628836715 -36.3265160796073 54.484851000000006
-60.73615094666321 -36.71570993021374 61.67988400000001
-160.52736468195548 -97.04065973328066 94.05752900000002
-56.22945195407335 -33.991357952426675 15.225001
-56.87326315580205 -34.380549314804114 66.84153699999999
-286.07114585323177 -172.9333361900861 150.366477
-59.448520311010256 -35.937322229000884 14.286519000000004
-410.32730050495286 -248.0476274339077 169.761782
-384.5747289528711 -232.4798982919402 165.85143800000003
-58.16089379145504 -35.15893701601699 82.795739
-253.88043347117852 -153.47367600674124 145.51765100000006
-281.56444686064197 -170.20898421229907 149.897236
-55.585636636246846 -33.60216410182023 33.368996
-133.48716249422077 -80.69454289010025 127.530071
-57.51707847362855 -34.76974316541055 64.02609
-53.65419479886517 -32.43458503822992 115.79904
-58.16089379145504 -35.15893701601699 56.987471
-20.175851781158904 -12.19653715367213 108.447594
-60.09233562883671 -36.326516079607295 8.968450999999996
-214.6077608252294 -129.7328884431835 139.41751499999998
-58.160893791455024 -35.158937016016985 37.12292600000001
-87.13253781657144 -52.67263292278771 120.335038
-58.16089379145504 -35.15893701601699 40.564028000000015
-59.44852031101024 -35.93732222900088 77.790499
-269.3319764024275 -162.8143134919217 148.02027100000006
-60.736150946663194 -36.715709930213734 78.572568
-58.16089379145504 -35.15893701601699 19.917414
-57.51707847362854 -34.769743165410546 82.952153
-59.44852031101024 -35.93732222900088 24.14058500000001
-112.2412940508267 -67.8511682141488 124.40179600000002
-123.18613387338812 -74.46745123331326 125.80951900000001
-56.22945195407335 -33.991357952426675 38.217822
-72.96862140487757 -44.11038065059106 118.458073
-54.94182131842037 -33.2129702512138 56.048989
-58.16089379145504 -35.15893701601699 45.725682000000006
-60.73615094666321 -36.71570993021374 59.646505000000005
-181.7732331253496 -109.88403440923213 134.56868900000003
-58.804709109281525 -35.54813086662343 65.59022699999998
-76.18769387791225 -46.056347415394264 119.396556
-349.16494409778323 -211.0742713437921 160.53337100000005
-161.17117588368424 -97.42985109565811 90.147185
-60.736150946663194 -36.715709930213734 81.857257
-191.43044642835585 -115.72193221541272 136.13282700000005
-154.7330350537127 -93.53792005428075 130.34551800000003
-59.448520311010256 -35.937322229000884 21.63796500000001
-58.804709109281525 -35.54813086662343 14.13010500000001
-60.092335628836715 -36.3265160796073 77.00843100000002
-58.16089379145504 -35.15893701601699 19.291759
-56.22945195407335 -33.991357952426675 49.948853
-293.15310200102977 -177.21446108206993 151.46137400000003
-60.092335628836715 -36.3265160796073 71.846777
-53.01037948103869 -32.04539118762349 43.848717
-58.804709109281525 -35.54813086662343 6.778658999999997
-272.5510447593644 -164.7602777684959 148.64592600000003
-56.873263155802064 -34.38054931480412 35.089547
-60.09233562883673 -36.32651607960731 23.98417100000001
-122.54232267165939 -74.07825987093581 125.65310600000001
-328.56288685611776 -198.62008803021806 157.248682
-307.9608296144525 -186.1659047166441 154.27682100000007
-57.51707847362855 -34.76974316541055 62.931194
-60.092335628836715 -36.3265160796073 53.23354100000001
-367.83555950206687 -222.3608755937758 163.348818
-390.36905858111396 -235.98263797094015 166.789921
-89.70779085568184 -54.22940334875547 121.117107
-231.3469343921314 -139.85191362957687 142.23296300000007
-56.873263155802064 -34.38054931480412 28.832997000000002
-57.51707847362855 -34.76974316541055 71.06470800000001
-18.888221145505938 -11.41814945245926 109.54249
-54.94182131842037 -33.2129702512138 32.430513000000005
-58.16089379145504 -35.15893701601699 50.88733500000001
-60.736150946663194 -36.715709930213734 77.321258
-57.51707847362854 -34.769743165410546 39.78195900000001
-290.57784484582163 -175.6576881678732 151.14854600000004
-59.44852031101024 -35.93732222900088 11.001830000000004
-7.299566005118031 -4.412672582688366 98.59352800000002
-209.45724651481305 -126.61934261478999 138.79186000000004
-325.34381438308316 -196.67412126541487 156.77944099999996
-61.37996626448968 -37.10490378082017 72.316018
-71.0371795674959 -42.94280158700076 117.98883199999999
-183.0608637610026 -110.66242211044502 134.725103
-144.43200643287997 -87.31082839749372 128.93779400000003
-61.379966264489696 -37.10490378082018 57.613126000000015
-243.57940485034587 -147.24658434995425 144.266341
-59.44852031101024 -35.93732222900088 47.13340500000001
-55.58563663624685 -33.602164101820236 85.7676
-219.11445981781927 -132.45724042097058 140.199584
-389.081427945461 -235.20425026972725 166.63350700000004
-335.0010318021871 -202.51202155982443 158.34357800000006
-401.9577137215018 -242.988114840711 168.97971300000006
-58.16089379145504 -35.15893701601699 26.799618
-58.16089379145504 -35.15893701601699 63.087607
-392.30050041849563 -237.15021703453044 167.41557599999993
-212.6763189878477 -128.56530937959317 139.10468800000007
-60.092335628836715 -36.3265160796073 28.207341999999997
-60.092335628836715 -36.3265160796073 57.925954000000004
-60.09233562883671 -36.326516079607295 81.700843
-57.51707847362855 -34.76974316541055 15.068587000000004
-56.873263155802064 -34.38054931480412 18.666104
-29.833065084165106 -18.034434959852703 112.04511
-190.7866352266271 -115.33274085303526 135.97641300000006
-58.804709109281525 -35.54813086662343 5.214521000000006
-56.22945195407335 -33.991357952426675 83.108567
-163.1026177210659 -98.59743015924842 93.43187399999998
-162.45880651933717 -98.20823879687097 131.75324199999997
-60.092335628836715 -36.3265160796073 78.416154
-60.092335628836715 -36.3265160796073 67.936433
-57.51707847362855 -34.76974316541055 85.141945
-57.51707847362854 -34.769743165410546 76.069948
-58.16089379145504 -35.15893701601699 41.502510000000015
-58.804709109281525 -35.54813086662343 64.96457200000002
-408.3958586675712 -246.8800483703174 169.60536800000003
-58.16089379145504 -35.15893701601699 23.51493000000001
-335.0010318021871 -202.51202155982443 158.49999200000002
-56.873263155802064 -34.38054931480412 45.569268
-161.8149912015107 -97.81904494626454 90.303599
-168.25313203148227 -101.71097598764193 132.53531
-208.16961999525785 -125.84095740180611 138.322619
-60.092335628836715 -36.3265160796073 81.544429
-160.52736468195553 -97.04065973328069 96.716563
-56.87326315580205 -34.380549314804114 87.01891
-189.4990045909741 -114.55435315182235 135.66358500000004
-59.44852031101024 -35.93732222900088 6.309418
-59.44852031101023 -35.93732222900087 24.609826000000012
-105.15933378693087 -63.57004083393598 123.30689900000002
-59.44852031101024 -35.93732222900088 82.63932600000001
-56.22945195407333 -33.99135795242667 62.461952
-60.092335628836715 -36.3265160796073 20.699482000000003
-61.379966264489696 -37.10490378082018 73.254501
-60.73615094666321 -36.71570993021374 61.52347
-25.97018140940173 -15.69927683267207 111.419455
-57.51707847362855 -34.76974316541055 32.586927
-60.092335628836715 -36.3265160796073 12.722381000000002
-56.22945195407335 -33.991357952426675 33.994651000000005
-59.44852031101024 -35.93732222900088 8.029969000000003
-60.73615094666321 -36.71570993021374 80.449533
-56.22945195407335 -33.991357952426675 19.761000000000006
-60.736150946663194 -36.715709930213734 82.013671
-60.73615094666321 -36.71570993021374 75.287879
-123.82994919121455 -74.85664508391967 125.965933
-72.96862140487758 -44.11038065059107 118.61448700000001
-262.25001613853175 -158.53318611170894 146.925375
-100.00881947651455 -60.456495005542486 122.52483100000002
-103.22789194954919 -62.40246177034567 122.83765800000002
-61.379966264489696 -37.10490378082018 70.751881
-17.600594625950734 -10.639764239475381 110.168145
-273.194860077191 -165.1494716191024 148.95875400000003
-58.80470910928154 -35.54813086662344 30.084306999999995
-71.03717956749588 -42.94280158700074 118.145246
-56.22945195407335 -33.991357952426675 48.384715
-59.44852031101024 -35.93732222900088 66.68512300000002
-58.16089379145504 -35.15893701601699 77.94691300000001
-60.092335628836715 -36.3265160796073 80.293119
-197.86859137442514 -119.61386574501908 137.227723
-94.85830516609818 -57.34294917714897 121.58634800000003
-62.02377746621841 -37.494095143197626 75.60070700000001
-58.804709109281525 -35.54813086662343 34.776719000000014
-62.02377746621841 -37.494095143197626 82.326498
-59.44852031101024 -35.93732222900088 20.54306900000001
-58.804709109281525 -35.54813086662343 68.40567500000002
-345.9458716247485 -209.12830457898892 160.06412999999998
-60.73615094666321 -36.71570993021374 24.296998000000006
-147.00726358808814 -88.86760131169046 129.719863
-392.30050041849563 -237.1502170345304 167.571989
-56.873263155802064 -34.38054931480412 45.41285400000001
-335.0010318021871 -202.51202155982443 158.187165
-143.144375797227 -86.53244069628084 89.20870300000003
-309.2484602501053 -186.9442924178569 154.43323500000002
-162.45880651933717 -98.20823879687097 93.901115
-58.16089379145504 -35.15893701601699 31.492030999999997
-13.09389563336087 -7.91541226168831 26.330376999999995
-55.585636636246846 -33.60216410182023 50.57450800000001
-58.804709109281525 -35.54813086662343 29.927893000000005
-59.44852031101024 -35.93732222900088 15.537829000000002
-13.737710951187355 -8.304606112294747 88.27021999999998
-55.58563663624685 -33.602164101820236 47.44623300000001
-58.16089379145504 -35.15893701601699 10.376175000000009
-57.51707847362855 -34.76974316541055 77.16484400000002
-8.587196640771014 -5.191060283901246 2.2426600000000008
-161.8149912015107 -97.81904494626454 95.46525300000002
-50.435122325830505 -30.48861827342673 115.01697100000003
-54.29800600059387 -32.82377640060735 115.642626
-60.09233562883671 -36.326516079607295 80.605947
-58.16089379145504 -35.15893701601699 21.950792000000003
-23.394924254193555 -14.142503918475317 111.263041
-171.4722045045169 -103.65694275244512 133.160965
-65.24284993925308 -39.44006190800082 117.206763
-57.51707847362854 -34.769743165410546 42.753820000000005
-57.51707847362855 -34.76974316541055 68.56208800000002
-61.379966264489696 -37.10490378082018 69.344157
-56.873263155802064 -34.38054931480412 29.302238
-58.804709109281525 -35.54813086662343 37.43575299999999
-60.092335628836715 -36.3265160796073 12.25314
-56.873263155802064 -34.38054931480412 44.630785
-410.3273005049528 -248.04762743390768 170.0746090000001
-34.33976407675498 -20.758786937639776 112.983592
-59.44852031101023 -35.93732222900087 78.728982
-65.24284993925308 -39.44006190800082 117.363177
-60.736150946663194 -36.715709930213734 76.539189
-58.80470910928151 -35.548130866623424 74.192983
-116.74799304341656 -70.57552019193588 124.871037
-57.51707847362855 -34.76974316541055 23.045688000000002
-88.42016433612665 -53.45101813577159 120.960693
-56.22945195407333 -33.99135795242667 49.636025
-58.804709109281525 -35.54813086662343 36.96651200000001
-60.73615094666321 -36.71570993021374 71.690363
-271.26341823980925 -163.98189255551205 148.17668500000005
-54.29800600059388 -32.823776400607365 60.584987000000005
-12.450080315534374 -7.526218411081868 87.488152
-194.00570358356399 -117.27870512960946 136.44565399999996
-148.93870542546986 -90.0351803752808 89.36511699999998
-62.023777466218384 -37.49409514319761 117.05035
-87.13253781657144 -52.67263292278772 120.64786600000001
-58.160893791455024 -35.158937016016985 51.669404
-59.44852031101022 -35.93732222900086 116.424695
-56.22945195407335 -33.991357952426675 85.92401400000001
-57.51707847362855 -34.76974316541055 41.971751999999995
-56.873263155802064 -34.38054931480412 54.01561000000001
-242.29177421469282 -146.46819664874133 143.64068600000002
-60.092335628836715 -36.3265160796073 21.168724000000008
-60.092335628836715 -36.3265160796073 38.999891
-15.025337470742548 -9.082991325278622 97.811459
-58.16089379145504 -35.15893701601699 51.51299000000001
-298.3036163114462 -180.32800691046347 152.55627
-58.804709109281525 -35.54813086662343 33.681823
-406.46441271409174 -245.71246681849811 169.44895399999996
-57.51707847362855 -34.76974316541055 11.471071000000004
-56.87326315580205 -34.380549314804114 23.827756999999995
-56.22945195407335 -33.991357952426675 44.00513000000001
-58.16089379145504 -35.15893701601699 67.623606
-160.5273646819555 -97.04065973328068 97.342218
-374.2737003320384 -226.25280663515318 164.60012800000004
-57.51707847362855 -34.76974316541055 20.855896
-60.092335628836715 -36.3265160796073 27.581687
-62.02377746621841 -37.494095143197626 73.41091500000002
-157.95210752674734 -95.48388681908392 91.867737
-58.804709109281525 -35.54813086662343 57.143885000000004
-57.51707847362854 -34.769743165410546 71.221122
-58.16089379145504 -35.15893701601699 38.37423600000002
-57.51707847362855 -34.76974316541055 25.86113600000001
-58.16089379145504 -35.15893701601699 83.89063600000001
-31.764506921546793 -19.202014023443017 112.670765
-59.44852031101023 -35.93732222900087 43.535889000000005
-56.873263155802064 -34.38054931480412 41.658924
-59.44852031101024 -35.93732222900088 6.465831000000005
-83.91346534353676 -50.72666615798451 120.022211
-236.49744458645003 -142.9654569697414 142.702204
-60.09233562883673 -36.32651607960731 46.820578
-77.47532039746744 -46.834732628378134 119.083728
-55.58563663624687 -33.60216410182024 59.33367700000001
-306.02938777707067 -184.99832565305368 153.494752
-161.81499120151068 -97.81904494626453 92.80621900000001
-56.873263155802064 -34.38054931480412 9.437693000000003
-59.44852031101024 -35.93732222900088 36.028029000000004
-58.16089379145504 -35.15893701601699 59.02085000000002
-59.448520311010256 -35.937322229000884 16.789139
-127.69283286597798 -77.19180321110034 88.73946200000002
-58.16089379145504 -35.15893701601699 35.245961000000015
-253.8804334711785 -153.47367600674121 145.674065
-54.29800600059388 -32.823776400607365 115.955453
-62.0237774662184 -37.49409514319762 75.13146600000002
-56.87326315580205 -34.380549314804114 35.715202000000005
-127.69283286597798 -77.19180321110034 126.74800200000001
-59.44852031101024 -35.93732222900088 48.07188800000001
-33.695952875026265 -20.369595575262334 113.140006
-155.37685037153918 -93.92711390488718 89.52153
-60.092335628836715 -36.3265160796073 30.866376000000006
-57.51707847362855 -34.76974316541055 18.196861999999996
-56.22945195407335 -33.991357952426675 61.210642
-56.22945195407335 -33.991357952426675 10.063348000000005
-327.9190715382913 -198.23089417961162 157.40509600000004
-10.518638478152699 -6.35863934749156 4.588866000000001
-58.16089379145504 -35.15893701601699 47.75906
-52.36656416321221 -31.656197337017055 115.17338500000001
-59.44852031101023 -35.93732222900087 70.439053
-60.73615094666321 -36.71570993021374 67.154365
-119.32325019862472 -72.13229310613262 125.18386400000001
-8.58719664077101 -5.191060283901243 114.860557
-146.36344827026167 -88.47840746108403 129.407035
-56.87326315580205 -34.380549314804114 65.43381399999998
-58.804709109281525 -35.54813086662343 71.377536
-226.19642008171505 -136.73836780118336 141.29448
-60.092335628836715 -36.3265160796073 34.307478
-104.51552258520218 -63.180849471558545 123.15048600000001
-60.736150946663194 -36.715709930213734 69.813398
-110.95366341517372 -67.07278051293594 87.80097900000001
-19.53203646333242 -11.807343303065696 109.698904
-132.19953597466557 -79.91615767711637 127.686484
-57.51707847362855 -34.76974316541055 25.079067
-60.73615094666321 -36.71570993021374 70.90829500000001
-59.44852031101024 -35.93732222900088 54.79767900000001
-58.804709109281525 -35.54813086662343 7.091485999999999
-286.07114585323177 -172.9333361900861 150.83571899999998
-32.408322239373284 -19.59120787404946 112.514351
-61.37996626448968 -37.10490378082017 75.913534
-62.02377746621843 -37.49409514319763 116.737522
-59.44852031101024 -35.93732222900088 32.89975400000001
-58.16089379145504 -35.15893701601699 32.274099
-320.1933000726668 -193.56057543702138 155.99737200000004
-57.51707847362855 -34.76974316541055 44.787199
-54.29800600059387 -32.82377640060736 42.284579
-58.16089379145504 -35.15893701601699 45.882095000000014
-58.804709109281525 -35.54813086662343 11.314658000000009
-139.9253074402901 -84.58647641970664 128.312139
-59.44852031101024 -35.93732222900088 67.31077800000001
-60.092335628836715 -36.3265160796073 64.338917
-54.94182131842037 -33.2129702512138 37.592166999999996
-58.16089379145504 -35.15893701601699 74.03657
-56.87326315580205 -34.380549314804114 41.18968300000002
-58.804709109281525 -35.54813086662343 10.845416000000004
-59.44852031101024 -35.93732222900088 40.40761400000001
-156.0206615732679 -94.31630526726461 130.81475900000004
-54.29800600059389 -32.823776400607365 71.53395
-52.36656416321221 -31.656197337017055 115.32979800000001
-163.1026177210659 -98.59743015924842 90.77284000000004
-112.8851052525554 -68.24035957652625 124.24538199999999
-60.73615094666321 -36.71570993021374 32.117686
-60.092335628836715 -36.3265160796073 69.500571
-57.51707847362855 -34.76974316541055 58.395195
-94.85830516609818 -57.34294917714897 121.74276200000001
-54.29800600059389 -32.823776400607365 31.648444
-57.51707847362855 -34.76974316541055 52.295059
-160.5273646819555 -97.04065973328068 97.49863100000003
-130.9119053390126 -79.13776997590351 127.37365700000001
-32.40832223937329 -19.591207874049463 112.35793700000002
-58.160893791455024 -35.158937016016985 34.463892000000016
-351.74020125299137 -212.63104425798886 161.159026
-160.5273646819555 -97.04065973328068 90.92925400000001
-56.22945195407335 -33.991357952426675 64.80815900000002
-58.80470910928151 -35.548130866623424 6.153004
-58.16089379145504 -35.15893701601699 17.88403500000001
-14.381522152916064 -8.693797474672186 98.124286
-340.15154611260346 -205.62556738821795 158.969233
-20.175851781158908 -12.196537153672134 110.63738599999999
-54.94182131842037 -33.2129702512138 19.135345000000004
-58.80470910928154 -35.54813086662344 7.873555
-281.5644468606419 -170.20898421229904 149.74082200000004
-128.98046350163094 -77.9701909123132 88.89587500000002
-128.98046350163094 -77.9701909123132 127.217243
-56.873263155802064 -34.38054931480412 33.838237000000014
-57.51707847362855 -34.76974316541055 79.823878
-59.448520311010256 -35.937322229000884 16.007070000000002
-10.518638478152699 -6.35863934749156 4.901694
-57.51707847362855 -34.76974316541055 72.15960500000001
-56.873263155802064 -34.38054931480412 46.66416400000001
-12.45008031553439 -7.526218411081877 88.42663399999999
-161.81499120151074 -97.81904494626455 91.554909
-56.87326315580207 -34.38054931480413 14.912174000000006
-57.51707847362854 -34.769743165410546 23.671343000000007
-11.162453795979186 -6.747833198097997 4.276039000000001
-24.038735455922282 -14.531695280852766 108.13476600000001
-56.873263155802064 -34.38054931480412 18.353276
-60.092335628836715 -36.3265160796073 64.495331
-60.73615094666321 -36.71570993021374 57.456711999999996
-17.600594625950723 -10.639764239475374 109.38607600000002
-10.518638478152697 -6.358639347491559 1.6170049999999996
-11.162453795979186 -6.747833198097997 3.024728999999999
-362.04122987382397 -218.85813591477583 162.72316300000003
-61.3799662644897 -37.10490378082019 116.58110800000001
-59.44852031101024 -35.93732222900088 69.03133000000001
-26.613992611130442 -16.088468195049508 111.732282
-60.092335628836715 -36.3265160796073 21.32513700000001
-59.448520311010256 -35.937322229000884 9.124865000000009
-58.80470910928154 -35.54813086662344 6.935073000000001
-60.092335628836715 -36.3265160796073 79.511051
-58.160893791455024 -35.158937016016985 46.038509
-57.51707847362855 -34.76974316541055 5.840175999999998
-11.806264997707896 -7.137024560475436 30.240720999999997
-57.51707847362855 -34.76974316541055 10.532588999999996
-96.78975111957763 -58.51053072896828 122.055589
-230.05930375647844 -139.073525928364 141.92013500000002
-58.16089379145504 -35.15893701601699 68.24926100000002
-289.93402952799516 -175.26849431726677 151.30496000000008
-55.58563663624685 -33.602164101820236 51.356576
-153.4454044180597 -92.75953235306785 130.50193200000004
-57.51707847362855 -34.76974316541055 16.945552000000003
-57.51707847362855 -34.76974316541055 62.77478
-78.11913571529394 -47.22392647898457 119.240142
-56.873263155802064 -34.38054931480412 58.23878100000001
-61.37996626448968 -37.10490378082017 75.444293
-58.804709109281525 -35.54813086662343 29.458651999999997
-56.873263155802064 -34.38054931480412 25.704722000000007
-56.22945195407335 -33.991357952426675 55.266920000000006
-205.59436284004968 -124.28418448760937 138.16620500000002
-56.873263155802064 -34.38054931480412 31.335617000000003
-60.092335628836715 -36.3265160796073 25.235481000000007
-60.73615094666321 -36.71570993021374 80.76236100000001
-54.94182131842036 -33.21297025121379 65.120986
-56.22945195407335 -33.991357952426675 15.694241999999997
-196.58096073877218 -118.83547804380622 137.38413700000007
-60.092335628836715 -36.3265160796073 27.738101
-55.58563663624685 -33.602164101820236 34.93313299999999
-57.51707847362855 -34.76974316541055 16.47631100000001
-107.73459094213906 -65.12681374813275 123.61972700000001
-156.66447689109438 -94.70549911787104 91.24208200000001
-53.65419479886517 -32.43458503822992 85.298359
-60.73615094666321 -36.71570993021374 86.706083
-57.51707847362855 -34.76974316541055 13.817277000000011
-58.160893791455024 -35.158937016016985 48.541129
-60.09233562883673 -36.32651607960731 8.342796000000002
-58.804709109281525 -35.54813086662343 42.597407000000004
-74.25625204053054 -44.88876835180393 118.770901
-92.28304801089 -55.78617626295222 87.331738
-58.16089379145504 -35.15893701601699 5.527349000000009
-22.107293618540588 -13.364116217262445 110.95021400000002
-159.23973404630257 -96.26227203206781 97.65504500000002
-58.16089379145504 -35.15893701601699 29.145825
-60.73615094666321 -36.71570993021374 61.367056000000005
-271.9072335576357 -164.3710864061185 148.80234
-58.804709109281525 -35.54813086662343 83.42139400000002
-25.326366091575252 -15.310082982065637 109.229662
-56.87326315580205 -34.380549314804114 62.305539
-109.02222157779202 -65.90520144934561 124.08896800000001
-190.7866352266271 -115.33274085303526 135.819999
-95.50212048392467 -57.73214302775541 122.36841700000001
-266.7567192472194 -161.257540577725 147.394616
-260.96238961897654 -157.75480089872505 147.081789
-58.16089379145504 -35.15893701601699 52.138645
-58.16089379145504 -35.15893701601699 35.871615999999996
-58.804709109281525 -35.54813086662343 55.73616100000001
-58.16089379145504 -35.15893701601699 26.017550000000004
-58.16089379145504 -35.15893701601699 67.46719200000001
-60.09233562883671 -36.326516079607295 65.746641
-58.16089379145504 -35.15893701601699 65.2774
-57.51707847362855 -34.76974316541055 60.428574
-58.160893791455024 -35.158937016016985 10.219761000000009
-17.60059462595074 -10.639764239475385 110.324559
-163.1026177210659 -98.59743015924843 93.74470100000002
-57.51707847362854 -34.769743165410546 33.52540900000002
-57.51707847362855 -34.76974316541055 39.156304000000006
-55.58563663624685 -33.602164101820236 35.402374
-57.51707847362855 -34.76974316541055 61.99271100000001
-13.093895633360876 -7.915412261688315 98.28070000000001
-205.59436284004966 -124.28418448760934 138.00979200000003
-59.44852031101024 -35.93732222900088 5.683763000000001
-56.873263155802064 -34.38054931480412 50.41809400000001
-56.873263155802064 -34.38054931480412 40.094787000000004
-7.299566005118035 -4.412672582688368 113.29642000000001
-60.09233562883671 -36.326516079607295 28.989411000000008
-8.587196640771012 -5.191060283901245 9.594106
-92.28304801089 -55.78617626295222 87.64456500000001
-6.655750687291535 -4.023478732081923 114.704143
-58.16089379145504 -35.15893701601699 41.346097
-56.22945195407335 -33.991357952426675 20.386655000000005
-59.44852031101024 -35.93732222900088 54.328438000000006
-56.22945195407335 -33.991357952426675 22.42003300000001
-56.873263155802064 -34.38054931480412 9.906933999999998
-60.092335628836715 -36.3265160796073 33.212582
-112.24129405082667 -67.85116821414879 87.95739299999998
-69.74954893184292 -42.16441388578788 117.83241800000002
-58.804709109281525 -35.54813086662343 49.16678400000001
-60.092335628836715 -36.3265160796073 30.55354800000001
-58.16089379145504 -35.15893701601699 37.90499400000001
-60.73615094666321 -36.71570993021374 55.110506
-55.58563663624685 -33.602164101820236 30.39713500000001
-156.0206615732679 -94.31630526726461 130.658345
-57.51707847362854 -34.769743165410546 66.059469
-60.092335628836715 -36.3265160796073 6.622245000000008
-18.888221145505923 -11.418149452459252 109.855317
-69.1057377301142 -41.77522252341043 117.676005
-60.092335628836715 -36.3265160796073 53.859196000000004
-57.51707847362855 -34.76974316541055 18.97893100000001
-57.51707847362855 -34.76974316541055 63.24402100000001
-154.0892197358862 -93.14872620367429 130.189104
-162.45880651933717 -98.20823879687097 91.71132300000002
-56.22945195407335 -33.991357952426675 13.504450000000002
-104.51552258520216 -63.18084947155854 122.99407200000002
-58.16089379145504 -35.15893701601699 32.743341
-55.58563663624685 -33.602164101820236 45.100027000000004
-60.092335628836715 -36.3265160796073 25.548308000000006
-56.22945195407335 -33.991357952426675 63.55684899999999
-10.5186384781527 -6.358639347491561 15.381415
-58.804709109281525 -35.54813086662343 17.727620999999996
-57.51707847362855 -34.76974316541055 26.95603199999999
-56.229451954073355 -33.99135795242668 36.653684
-55.58563663624685 -33.602164101820236 87.175324
-163.1026177210659 -98.59743015924842 94.52676999999998
-157.30829220892085 -95.09469296847747 89.677944
-108.37840625996554 -65.51600759873918 123.93255400000001
-60.09233562883671 -36.326516079607295 28.050928
-58.16089379145504 -35.15893701601699 36.340857
-22.751108936367082 -13.753310067868888 109.073249
-57.51707847362855 -34.76974316541055 14.59934600000001
-57.51707847362855 -34.76974316541055 23.202102
-57.51707847362855 -34.76974316541055 46.97699200000001
-58.16089379145504 -35.15893701601699 44.47437200000001
-137.99386148681063 -83.41889486788733 128.155726
-60.73615094666321 -36.71570993021374 31.02278900000001
-10.518638478152688 -6.358639347491554 98.437114
-92.28304801089001 -55.786176262952225 121.273521
-10.518638478152699 -6.35863934749156 3.181143000000001
-161.8149912015107 -97.81904494626454 92.64980500000001
-136.06241964942896 -82.25131580429701 127.99931200000002
-57.51707847362855 -34.76974316541055 28.676583000000015
-53.010379481038676 -32.04539118762348 65.90305500000001
-157.95210752674734 -95.48388681908392 131.127587
-58.16089379145504 -35.15893701601699 26.486791
-54.29800600059388 -32.823776400607365 20.073827000000012
-55.585636636246846 -33.60216410182023 13.035208999999996
-56.22945195407335 -33.991357952426675 24.922652999999997
-156.66447689109438 -94.70549911787104 92.02415000000002
-60.092335628836715 -36.3265160796073 53.546369000000006
-59.44852031101024 -35.93732222900088 49.010370000000016
-59.44852031101024 -35.93732222900088 12.096726000000006
-58.16089379145504 -35.15893701601699 35.55878800000001
-60.092335628836715 -36.3265160796073 17.571207
-194.64951890139048 -117.6678989802159 136.91489500000003
-11.162453795979186 -6.747833198097997 14.442932000000003
-58.16089379145504 -35.15893701601699 46.50775000000001
-10.518638478152697 -6.358639347491559 4.745280000000003
-58.16089379145504 -35.15893701601699 49.792439
-60.092335628836715 -36.3265160796073 11.158244000000003
-58.804709109281525 -35.54813086662343 8.186383000000006
-88.42016433612663 -53.451018135771584 120.491452
-60.092335628836715 -36.3265160796073 70.28264000000001
-27.257807928956936 -16.47766204565595 111.57586800000001
-56.873263155802064 -34.38054931480412 43.69230300000001
-58.804709109281525 -35.54813086662343 84.20346300000001
-60.092335628836715 -36.3265160796073 43.223062000000006
-57.51707847362855 -34.76974316541055 29.771480000000007
-29.8330650841651 -18.0344349598527 112.20152299999998
-107.09077974041033 -64.73762238575529 123.776141
-58.16089379145504 -35.15893701601699 53.07712800000001
-54.94182131842037 -33.2129702512138 63.713262
-60.092335628836715 -36.3265160796073 56.361816
-11.806264997707897 -7.137024560475437 5.058108000000001
-8.587196640771015 -5.191060283901247 3.9632109999999994
-54.94182131842037 -33.2129702512138 9.750520000000002
-81.3382081883286 -49.16989324378776 119.865797
-10.518638478152699 -6.35863934749156 1.773419
-22.107293618540602 -13.364116217262454 108.604007
-60.092335628836715 -36.3265160796073 11.94031300000001
-15.025337470742556 -9.082991325278627 97.967873
-58.804709109281525 -35.54813086662343 18.509689999999996
-60.092335628836715 -36.3265160796073 34.620306000000014
-63.95522341969787 -38.661676695016936 116.893936
-54.29800600059388 -32.823776400607365 33.056168000000014
-54.94182131842036 -33.21297025121379 24.766240000000007
-59.44852031101024 -35.93732222900088 17.10196600000001
-7.299566005118035 -4.412672582688368 107.665525
-23.394924254193565 -14.142503918475322 108.29118
-58.80470910928154 -35.54813086662344 19.604585999999998
-20.1758517811589 -12.196537153672129 110.480972
-58.804709109281525 -35.54813086662343 38.530649
-10.518638478152699 -6.35863934749156 4.119625000000002
-58.16089379145505 -35.158937016017 42.128165
-60.092335628836715 -36.3265160796073 55.89257500000001
-60.092335628836715 -36.3265160796073 66.997951
-58.16089379145504 -35.15893701601699 18.82251700000001
-57.51707847362855 -34.76974316541055 54.641265000000004
-60.73615094666321 -36.71570993021374 57.769540000000006
-9.231007842499723 -5.5802516462786835 3.3375569999999986
-94.85830516609819 -57.342949177148974 121.429934
-59.44852031101024 -35.93732222900088 55.423334000000004
-160.5273646819555 -97.04065973328068 96.247321
-58.16089379145504 -35.15893701601699 21.012310000000003
-126.40520634642277 -76.41341799811646 126.278761
-58.804709109281525 -35.54813086662343 17.25838
-161.81499120151068 -97.81904494626453 96.09090800000003
-58.160893791455024 -35.158937016016985 84.82911800000001
-55.58563663624685 -33.602164101820236 16.319897000000008
-11.162453795979186 -6.747833198097997 2.5554880000000018
-58.804709109281525 -35.54813086662343 37.748581
-11.162453795979186 -6.747833198097997 3.493969999999999
-54.29800600059388 -32.823776400607365 85.611187
-10.518638478152699 -6.35863934749156 2.3990740000000006
-56.87326315580205 -34.380549314804114 19.448172000000003
-10.518638478152699 -6.35863934749156 2.711902000000001
-56.22945195407333 -33.99135795242667 51.98223099999999
-17.60059462595073 -10.63976423947538 110.011731
-58.804709109281525 -35.54813086662343 50.261680000000005
-58.80470910928151 -35.548130866623424 38.061408000000014
-57.51707847362855 -34.76974316541055 36.810098
-59.44852031101024 -35.93732222900088 16.163484
-53.01037948103868 -32.04539118762349 48.228302000000006
-55.585636636246846 -33.60216410182023 14.755759999999997
-58.80470910928151 -35.548130866623424 51.200163
-57.51707847362855 -34.76974316541055 59.177264
-161.17117588368424 -97.42985109565811 92.180564
-60.73615094666321 -36.71570993021374 31.961272
-60.092335628836715 -36.3265160796073 58.551609000000006
-10.518638478152697 -6.358639347491559 13.660864
-60.09233562883673 -36.32651607960731 31.179203000000005
-58.16089379145504 -35.15893701601699 48.69754300000001
-7.299566005118034 -4.4126725826883675 107.97835200000002
-57.51707847362855 -34.76974316541055 26.64320500000001
-59.44852031101024 -35.93732222900088 58.082367000000005
-9.874823160326212 -5.969445496885123 2.086247000000001
-7.299566005118035 -4.412672582688368 4.432453000000001
-256.9729548591249 268.83187298364356 155.5281310000001
-44.36146463739602 46.40867998465701 36.184443
-43.84163129788498 45.86485711280381 52.607886
-175.35925349369415 183.45182117537283 140.04317000000003
-266.8497716926094 279.1644901647692 157.87433700000003
-11.612017423321497 12.147894686978077 89.052289
-71.91258842669535 75.23124699425514 120.80427899999998
-43.84163129788499 45.86485711280381 51.66940400000001
-91.14638875415321 95.35265848465309 124.558209
-316.75369252298776 331.37140241906746 167.728403
-129.61399605595906 135.5954884190832 96.403735
-330.26933608615934 345.5107727495313 169.605368
-312.0751991142785 326.4770035260227 166.16426600000005
-43.32180128181902 45.32103771776771 61.99271100000001
-202.91037728299344 212.27438818497092 145.361238
-44.361464637396026 46.40867998465703 37.592166999999996
-289.7224020731995 303.09265828132254 162.09750799999998
-44.361464637396026 46.40867998465703 41.815338
-44.881297976907064 46.952502856510236 70.126226
-44.88129797690707 46.95250285651024 27.268860000000004
-323.51151596629614 338.44108932270797 168.823299
-251.25479809483863 262.84983182370945 154.589649
-44.361464637396026 46.40867998465703 16.789139000000002
-42.28213460279693 44.23339197406127 54.01561
-302.19838228079414 316.14438634489716 164.443715
-183.1567402925795 191.60915034590266 141.450894
-293.3612288028866 306.89941143066085 162.410336
-45.40113131641811 47.49632572836345 10.689002999999998
-76.07124849589357 79.58182301544667 121.89917600000001
-43.32180128181901 45.321037717767695 59.646505000000005
-45.401131316418116 47.49632572836346 56.67464400000001
-58.39694154007867 61.09187318697414 118.30166000000001
-243.45731129595336 254.69250265317973 153.025511
-95.82488216286242 100.24705737769781 125.027451
-155.0857864872142 162.24276394126844 136.28924000000004
-44.88129797690707 46.95250285651024 73.72374200000002
-177.9584168678043 186.1709320578218 140.512411
-45.92096133248408 48.040145123399576 43.379475
-44.361464637396026 46.40867998465703 63.40043500000001
-41.24247124721992 43.145749707171944 69.18774300000001
-200.3112139088833 209.55527730252194 144.891996
-45.92096133248408 48.040145123399576 72.94167300000001
-46.960628011506174 49.12779086710601 67.78002
-45.92096133248408 48.040145123399576 79.511051
-53.7184514548145 56.197477770746495 86.86249700000002
-197.1922171952621 206.29234354821972 144.109928
-44.361464637396026 46.40867998465703 28.363756000000002
-45.92096133248408 48.040145123399576 54.17202400000001
-219.0251842202752 229.1328693978838 148.33309900000006
-43.84163129788499 45.86485711280381 37.90499400000001
-133.2528227856462 139.40224156842152 132.22248300000004
-137.93131287091038 144.29663698464913 133.00455200000002
-288.1629053781114 301.46119314258 161.78468100000003
-307.39670902901435 321.58260810979505 165.06936900000008
-16.81034417154179 17.586116451876038 110.7938
-276.7265918495389 289.4971108227119 159.43847500000004
-43.84163129788498 45.86485711280381 8.342795999999998
-62.0357715932109 64.89862981312955 118.92731500000001
-311.0355357587015 325.38936125913335 165.69502399999996
-248.65563472072856 260.13072094126056 153.8075800000001
-44.36146463739602 46.40867998465701 70.595467
-46.44079467199513 48.58396799525279 60.27216
-193.553390465575 202.48559039888147 143.17144500000006
-42.80196794230798 44.77721484591449 46.66416400000001
-130.13382607202502 136.13930781411932 93.11904700000001
-309.4760390636135 323.75789612039085 165.538611
-43.32180128181902 45.32103771776771 46.194923
-43.84163129788499 45.86485711280381 75.757121
-127.53466602135998 133.42020040848746 131.440414
-262.17128160734524 274.27009474854157 156.62302699999998
-328.7098393910713 343.87930761078877 169.29254100000003
-43.84163129788499 45.86485711280381 26.01755000000001
-45.401131316418116 47.49632572836346 11.471071000000004
-302.71821562030505 316.6882092167503 164.756542
-46.44079467199512 48.583967995252785 72.78526
-43.84163129788497 45.864857112803804 82.482912
-44.88129797690707 46.95250285651024 18.822516999999994
-142.60980627961962 149.1910358776939 133.63020700000004
-215.3863574905881 225.32611624854553 147.707444
-42.801967942307975 44.777214845914486 82.63932600000001
-129.094162716448 135.05166554723 131.596828
-130.65365941153607 136.68313068597251 95.15242500000001
-230.98133108835867 241.64077458960506 150.67930500000003
-253.85396146894885 265.5689427061585 155.05888999999996
-45.40113131641811 47.49632572836345 62.461952
-329.22967273058237 344.423130482642 169.136127
-181.59724359749146 189.97768520716014 141.138066
-305.3173789944152 319.4073200991993 164.91295600000004
-80.22990856509175 83.93239903663817 122.21200300000002
-280.36541857922606 293.3038639720502 160.22054300000008
-149.887463062439 156.8045456531876 135.194344
-134.81231948073426 141.03370670716407 132.37889700000005
-44.361464637396026 46.40867998465703 62.931194
-209.66819740285672 219.34407161179433 146.45613400000002
-131.17349275104712 137.22695355782577 93.431874
-288.1629053781115 301.46119314258004 161.94109500000005
-129.61399605595906 135.5954884190832 89.99077200000002
-131.17349275104712 137.22695355782577 93.27546000000001
-274.12742847542876 286.7779999402629 158.96923300000003
-45.92096133248408 48.040145123399576 73.254501
-92.70588877268634 96.98412710021273 124.71462300000002
-277.76625520511595 290.58475308960124 159.594888
-42.28213460279692 44.23339197406126 86.08042800000001
-238.25898454773304 249.25428088828173 152.08702900000003
-130.65365941153604 136.68313068597251 95.621666
-177.9584168678043 186.1709320578218 140.35599800000003
-45.92096133248408 48.040145123399576 42.910234
-8.493024033145392 8.884964409492992 4.276039000000002
-43.84163129788499 45.86485711280381 84.04704900000002
-64.11510162780999 67.0739178237253 119.70938300000002
-43.84163129788498 45.86485711280381 5.214521000000008
-132.2131561066241 138.31459582471504 131.909655
-9.5326873887224 9.972606676382318 16.476311
-313.11486579330057 327.5646492697291 166.3206790000001
-45.920961332484076 48.04014512339956 71.221122
-274.12742847542876 286.7779999402629 158.81282000000004
-43.32180128181902 45.3210377177677 47.28981900000001
-44.88129797690707 46.95250285651024 12.722381000000011
-42.801967942307975 44.777214845914486 56.831058000000006
-43.84163129788498 45.86485711280381 76.852017
-207.5888673682576 217.16878360119856 146.14330600000005
-118.69751254345252 124.17522549425118 129.56344900000002
-129.61399605595903 135.59548841908318 94.99601100000001
-239.8184845662662 250.8857495038414 152.71268400000002
-27.726824360603242 29.006375899890948 112.827178
-307.9165390450803 322.12642750483116 165.38219700000005
-214.86652415107702 224.78229337669228 147.55103
-46.44079467199513 48.58396799525279 80.44953300000002
-46.44079467199513 48.58396799525279 79.98029200000002
-255.41345816403688 267.200407844901 155.68454499999999
-333.3883327997805 348.77370650383347 170.3874370000001
-260.09195157274615 272.0948067379458 156.15378599999994
-248.13580470466258 259.5869015462244 154.12040699999997
-206.0293706731696 215.53731846245606 145.830479
-6.933527338057341 7.253499270750452 2.0862469999999997
-43.32180128181902 45.32103771776771 68.71850200000002
-167.04193335529774 174.75066913298977 138.166205
-45.92096133248408 48.040145123399576 78.25974100000002
-44.88129797690707 46.95250285651024 84.359877
-229.94166440933665 240.5531288458987 150.210064
-287.64307203860034 300.91737027072674 161.62826700000002
-262.6911116234112 274.8139141435777 157.09226800000002
-297.0000588560189 310.70616805681624 163.8180600000001
-96.86454884188454 101.33470312140426 125.340278
-148.84779638341692 155.71689990948116 134.88151700000003
-45.92096133248408 48.040145123399576 82.01367100000002
-46.440794671995135 48.583967995252806 43.535889
-141.05030958453156 147.55957073895135 133.47379300000003
-125.97516600282685 131.78873179292782 130.97117300000002
-45.92096133248408 48.040145123399576 44.16154399999999
-129.61399605595906 135.5954884190832 96.87297600000001
-252.81429478992675 264.48129696245206 154.74606200000005
-241.37798126135425 252.51721464258395 152.39985600000003
-43.84163129788499 45.86485711280381 49.323198000000005
-39.16314121262082 40.97046169657618 21.794378
-42.28213460279693 44.23339197406126 50.105266
-45.401131316418116 47.49632572836346 47.133405
-46.44079467199512 48.583967995252785 61.367056000000005
-144.6891363142187 151.36632388828963 134.09944800000002
-20.44917090122893 21.39286960121433 108.91683500000002
-44.881297976907064 46.952502856510236 29.302238000000003
-46.44079467199513 48.58396799525279 57.61312600000001
-128.57432937693696 134.50784267537676 96.24732100000003
-292.32156544730964 305.81176916377154 162.87957700000013
-44.881297976907064 46.952502856510236 10.845416
-45.920961332484076 48.04014512339956 66.84153699999999
-210.18803074236777 219.88789448364756 146.612548
-45.920961332484076 48.04014512339956 69.969812
-45.920961332484076 48.04014512339956 14.286519000000007
-6.93352733805734 7.253499270750451 4.901694000000001
-221.62434427094027 231.85197680351567 148.958754
-332.3486661207584 347.686060760127 170.231023
-174.8394201541831 182.9079983035196 139.73034300000003
-46.44079467199513 48.58396799525279 73.567328
-193.03355712606395 201.94176752702825 143.01503099999996
-45.401131316418116 47.49632572836346 43.066648
-307.39670902901435 321.58260810979505 165.225783
-254.3737914850148 266.1127621011946 155.37171700000002
-44.36146463739602 46.40867998465701 48.228302
-128.57432937693696 134.50784267537676 97.18580400000003
-285.04390866449023 298.1982593882778 161.00261200000006
-124.41566930773874 130.1572666541852 130.50193200000004
-175.35925349369413 183.45182117537283 139.88675599999996
-159.24444655641238 166.59333996245996 137.07130899999999
-44.36146463739602 46.40867998465701 37.279339
-129.61399605595906 135.5954884190832 90.46001300000002
-43.84163129788499 45.86485711280381 84.672704
-320.3925192526749 335.1781555684057 167.88481700000008
-130.13382607202502 136.13930781411932 95.93449400000002
-169.6410967294079 177.46978001543877 138.94827399999997
-45.401131316418116 47.49632572836346 64.02609
-282.9645786298912 296.02297137768215 160.846198
-241.89781460086527 253.06103751443715 152.86909699999998
-46.44079467199513 48.58396799525279 80.29311900000002
-131.69332276711307 137.77077295286188 90.61642700000002
-159.24444655641238 166.59333996245996 137.22772300000005
-46.44079467199512 48.583967995252785 56.987471000000006
-42.80196794230798 44.77721484591449 29.615066000000006
-321.43218593169695 336.26580131211216 168.354058
-173.27992345909504 181.27653316477708 139.41751499999998
-44.361464637396026 46.40867998465703 51.043749000000005
-43.32180128181902 45.3210377177677 60.584987
-189.39473039637676 198.1350143776899 142.38937600000003
-43.84163129788499 45.86485711280382 40.564028
-236.699487852645 247.6228157495392 151.93061500000002
-44.36146463739602 46.40867998465701 77.790499
-217.9855175412531 228.04522365417733 148.02027100000006
-47.48046135101722 49.67161373895923 116.268281
-43.84163129788499 45.86485711280381 78.572568
-309.9958690796794 324.3017155154269 166.00785199999996
-44.361464637396026 46.40867998465703 52.45147300000001
-138.4511462104214 144.84045985650235 133.31737900000002
-291.80173210779856 305.2679462919183 162.56675000000004
-260.6117815888121 272.6386261329819 156.31020000000007
-127.53466602135997 133.42020040848746 131.28400000000002
-116.61818250885342 121.99993748365543 129.250622
-150.927126418016 157.8921879200769 135.50717200000003
-179.51791356289235 187.80239719656436 140.82523900000004
-319.8726859131639 334.6343326965525 168.197644
-6.413693998546296 6.709676398897234 1.9298329999999997
-46.96062801150617 49.127790867106 78.416154
-43.84163129788498 45.86485711280381 9.437693000000001
-43.32180128181902 45.32103771776771 68.87491600000001
-195.63272050017406 204.6608784094772 143.7971
-44.361464637396026 46.40867998465703 21.481551000000007
-245.01680799104145 256.3239677919223 153.338339
-44.881297976907064 46.952502856510236 39.78195900000001
-223.70367430553938 234.02726481411145 149.42799500000004
-43.32180128181902 45.32103771776771 45.725682
-46.960628011506174 49.12779086710601 74.03657
-287.1232386990893 300.37354739887354 161.471853
-136.89164951533337 143.20899471775982 132.691724
-46.44079467199513 48.58396799525279 79.66746400000001
-281.9249152743141 294.93532911079274 160.68978500000006
-44.36146463739602 46.40867998465701 12.878795000000009
-44.88129797690707 46.95250285651024 41.189683
-42.801967942307975 44.777214845914486 39.625544999999995
-236.699487852645 247.6228157495392 151.77420100000003
-44.361464637396026 46.40867998465703 66.372296
-63.07543494878791 65.98627208001886 119.39655600000002
-43.84163129788499 45.86485711280381 53.70278299999999
-42.28213460279693 44.23339197406127 16.632725000000004
-281.9249152743142 294.9353291107928 160.53337100000005
-45.401131316418116 47.49632572836346 81.85725700000002
-277.24642186560493 290.04093021774804 159.125647
-154.04612313163722 161.15512167437916 136.132827
-43.32180128181902 45.3210377177677 81.23160200000001
-44.88129797690707 46.95250285651024 31.492031000000008
-43.32180128181902 45.32103771776771 77.321258
-244.49697465153037 255.78014492006903 153.181925
-45.92096133248408 48.040145123399576 58.082367
-78.15057853049264 81.75711102604241 122.055589
-220.0648475758522 230.2205116647731 148.48951199999996
-127.01483268184889 132.8763775366342 94.37035600000003
-329.7495060700934 344.9669533544952 169.448954
-191.47406043097584 200.31030238828566 143.32785900000002
-43.84163129788497 45.864857112803804 66.685123
-287.1232386990893 300.37354739887354 161.31544
-42.28213460279692 44.23339197406126 66.215882
-63.59526828829895 66.53009495187209 119.55297000000002
-171.720426764007 179.64506802603452 139.261101
-43.84163129788499 45.86485711280381 49.94885300000001
-314.1545291488776 328.65229153661846 166.47709300000005
-43.32180128181902 45.3210377177677 50.57450800000001
-43.32180128181902 45.32103771776771 40.251200000000004
-45.920961332484076 48.04014512339956 55.57974800000001
-200.83104724839436 210.09910017437517 145.04841
-314.6743624883886 329.1961144084716 166.94633400000006
-43.84163129788498 45.86485711280381 31.804858000000003
-237.21932119215606 248.16663862139245 151.617787
-52.67878477579242 55.10983202704007 86.393255
-227.86233437473757 238.37784083530295 150.05365000000006
-43.32180128181902 45.3210377177677 35.089547
-178.9980802233813 187.2585743247111 140.668825
-104.14220230125882 108.94820942008086 127.060829
-232.0209944439358 242.7284168564945 150.522891
-199.7913805693723 209.01145443066875 144.73558300000005
-43.84163129788499 45.86485711280381 48.071888
-47.48046135101721 49.671613738959216 76.382776
-223.1838442894734 233.4834454190753 149.11516700000004
-52.67878477579243 55.10983202704008 86.23684200000001
-280.88524859529196 293.84768336708623 160.376957
-6.413693998546292 6.709676398897231 24.453412000000004
