ply
format ascii 1.0
element vertex 903
property float32 x
property float32 y
property float32 z
element face 0
property list uint8 int32 vertex_indices
end_header
-47.915541634257 -46.05096202114103 26.330377
-49.000366311243745 -47.0935719613738 99.219183
-50.08518752043133 -48.13617856875292 81.388016
-49.00036631124374 -47.09357196137378 106.25780100000001
-47.915541634257 -46.05096202114103 61.83629700000001
-50.62759985892469 -48.657483538869286 36.96651200000001
-49.000366311243745 -47.0935719613738 111.575868
-47.915541634256996 -46.050962021141025 64.495331
-49.000366311243745 -47.0935719613738 26.486791
-49.542778649737116 -47.61487693149017 23.984170999999993
-51.712424535911424 -49.70009347910204 16.476311000000003
-56.59412517895428 -54.39182821158853 133.47379300000003
-51.17001219741805 -49.178788508985654 42.12816500000001
-51.17001219741806 -49.17878850898567 73.72374200000002
-50.62759985892469 -48.657483538869286 17.571207
-7.2346856032374385 -6.953155919485397 132.53531
-45.745895748082674 -43.96574547352915 117.519591
-5.607448587757323 -5.389241009136254 6.153003999999999
-5.607448587757322 -5.389241009136253 13.348036000000002
-50.62759985892469 -48.657483538869286 9.124865000000009
-5.607448587757323 -5.389241009136254 8.186383000000001
-47.915541634257 -46.05096202114103 111.263041
-51.71242453591143 -49.700093479102044 62.77478000000001
-48.457953972750374 -46.572266991257415 18.196861999999996
-50.08518752043134 -48.136178568752925 15.850656000000015
-5.607448587757322 -5.389241009136253 10.376175
-50.62759985892469 -48.657483538869286 89.208703
-5.607448587757326 -5.389241009136256 131.440414
-49.542778649737116 -47.61487693149017 56.67464400000001
-49.00036631124374 -47.09357196137378 112.827178
-47.37313276356279 -45.529660383878294 88.11380700000001
-50.08518752043132 -48.136178568752904 76.852017
-5.607448587757323 -5.389241009136254 5.8401760000000005
-48.457953972750374 -46.572266991257415 120.17862400000003
-49.542778649737116 -47.61487693149017 106.570629
-45.74589574808268 -43.96574547352916 113.452833
-49.54277864973711 -47.614876931490166 108.91683499999999
-46.28830808657605 -44.487050443645536 107.66552499999999
-50.08518752043133 -48.13617856875292 114.23490200000002
-50.62759985892469 -48.657483538869286 10.84541600000001
-50.62759985892469 -48.657483538869286 56.831058000000006
-50.62759985892469 -48.657483538869286 16.319897
-8.319506812425017 -7.995762526864512 114.39131599999999
-7.777094473931637 -7.474457556748124 134.25586200000004
-49.000366311243745 -47.0935719613738 56.98747099999999
-6.149860926250693 -5.910545979252634 23.514930000000003
-51.17001219741806 -49.17878850898567 60.741401
-6.149860926250693 -5.910545979252634 14.599346
-56.05171630826007 -53.870526574325794 133.160965
-48.457953972750374 -46.572266991257415 53.389955
-50.62759985892469 -48.657483538869286 60.897815000000016
-49.000366311243745 -47.0935719613738 32.743341
-5.6074485877573235 -5.389241009136255 5.214521
-6.149860926250693 -5.910545979252634 14.75576
-6.692273264744066 -6.431850949369015 12.25314
-5.607448587757322 -5.389241009136253 15.225001
-47.915541634257 -46.05096202114103 69.187743
-44.11866220040173 -42.40183389603366 127.37365700000001
-49.000366311243745 -47.0935719613738 47.28981900000001
-51.17001219741806 -49.17878850898567 57.30029900000001
-50.62759985892468 -48.65748353886928 65.120986
-49.54277864973711 -47.614876931490166 110.480972
-49.000366311243745 -47.0935719613738 24.922653000000004
-44.66107453889509 -42.92313886615003 129.563449
-51.712424535911424 -49.70009347910204 130.971173
-49.000366311243745 -47.0935719613738 20.855896
-5.607448587757315 -5.389241009136246 133.943034
-51.17001219741806 -49.17878850898567 73.567328
-45.745895748082674 -43.96574547352915 115.642626
-48.45795397275037 -46.57226699125741 90.460013
-5.6074485877573235 -5.389241009136255 11.314658000000001
-47.915541634256996 -46.050962021141025 107.352697
-50.08518752043133 -48.13617856875292 89.67794400000001
-51.17001219741806 -49.17878850898567 30.084307000000013
-46.83072042506941 -45.008355413761905 108.447594
-5.607448587757317 -5.389241009136248 127.686484
-46.83072042506941 -45.008355413761905 51.825818
-50.62759985892469 -48.657483538869286 67.936433
-49.000366311243745 -47.0935719613738 52.45147300000001
-6.149860926250696 -5.910545979252636 21.950792000000003
-7.777094473931645 -7.474457556748132 27.738101
-46.83072042506942 -45.00835541376191 118.927315
-8.319506812425017 -7.995762526864513 116.893936
-45.20348687738848 -43.44444383626642 121.58634800000002
-7.777094473931644 -7.47445755674813 6.309417999999998
-46.28830808657605 -44.487050443645536 125.18386399999999
-46.28830808657605 -44.487050443645536 121.74276199999998
-49.54277864973711 -47.614876931490166 75.287879
-46.83072042506941 -45.008355413761905 110.95021400000002
-7.7770944739316485 -7.474457556748136 126.90441599999998
-49.54277864973711 -47.614876931490166 28.050928000000006
-7.234685603237437 -6.953155919485395 19.917414
-51.17001219741806 -49.17878850898567 68.87491600000001
-5.607448587757324 -5.389241009136255 20.543069
-47.915541634256996 -46.050962021141025 11.158244000000003
-48.45795397275039 -46.57226699125742 22.889274999999998
-49.000366311243745 -47.0935719613738 22.10720600000001
-51.71242453591143 -49.700093479102044 71.53395
-48.45795397275037 -46.57226699125741 95.62166600000002
-51.17001219741806 -49.17878850898567 86.393255
-51.17001219741806 -49.17878850898567 36.02802900000001
-46.83072042506941 -45.008355413761905 73.410915
-6.149860926250696 -5.910545979252636 28.520170000000004
-49.542778649737116 -47.61487693149017 11.627484999999997
-49.542778649737116 -47.61487693149017 16.163484
-50.62759985892469 -48.657483538869286 28.676583000000008
-60.93341695130291 -58.562261306812275 134.412275
-48.45795397275037 -46.57226699125741 115.17338500000001
-44.66107453889511 -42.92313886615004 124.87103700000002
-47.37313276356278 -45.52966038387828 78.10332699999998
-6.692273264744053 -6.431850949369003 126.74800200000001
-49.000366311243745 -47.0935719613738 47.75906
-45.203486877388464 -43.44444383626641 115.486212
-5.6074485877573235 -5.389241009136255 8.342796000000002
-7.234685603237434 -6.953155919485393 25.861136000000002
-47.915541634257 -46.05096202114103 95.46525300000002
-5.607448587757324 -5.3892410091362555 106.101387
-6.692273264744067 -6.431850949369016 4.276038999999999
-46.83072042506942 -45.00835541376191 119.24014199999999
-5.60744858775732 -5.389241009136251 17.727621
-49.542778649737116 -47.61487693149017 39.15630400000001
-5.607448587757324 -5.389241009136255 113.765661
-5.607448587757326 -5.389241009136256 125.809519
-5.6074485877573235 -5.389241009136255 134.099448
-48.457953972750374 -46.572266991257415 101.56538900000002
-8.319506812425013 -7.995762526864509 46.820578
-52.25483340660565 -50.22139511636479 21.637965000000012
-48.457953972750374 -46.572266991257415 104.380836
-47.37313276356278 -45.52966038387828 91.24208200000001
-5.607448587757313 -5.389241009136245 130.189104
-46.28830808657605 -44.487050443645536 109.386076
-5.607448587757323 -5.389241009136254 14.442932
-7.777094473931642 -7.4744575567481295 30.709962000000004
-48.457953972750374 -46.572266991257415 33.212582000000005
-44.66107453889509 -42.92313886615003 124.40179600000002
-5.607448587757324 -5.389241009136255 4.901694
-5.6074485877573235 -5.389241009136255 5.527349
-5.607448587757326 -5.389241009136256 128.78138100000004
-5.607448587757324 -5.389241009136255 6.465831
-51.712424535911424 -49.70009347910204 24.453411999999993
-51.71242453591143 -49.700093479102044 45.56926800000001
-5.607448587757323 -5.389241009136254 7.091486000000001
-53.339658083592376 -51.26400505659754 132.222483
-6.692273264744066 -6.431850949369015 14.286518999999998
-48.45795397275037 -46.57226699125741 19.135345000000008
-7.777094473931642 -7.4744575567481295 22.732861
-6.692273264744058 -6.431850949369008 122.055589
-49.542778649737116 -47.61487693149017 39.469132000000016
-49.542778649737116 -47.61487693149017 29.615065999999995
-7.234685603237437 -6.953155919485395 19.604586
-46.28830808657603 -44.487050443645515 127.530071
-45.745895748082674 -43.96574547352915 106.883456
-51.17001219741806 -49.17878850898567 31.804858
-47.915541634257 -46.05096202114103 18.822517
-5.607448587757323 -5.389241009136254 12.565967
-45.74589574808268 -43.96574547352916 96.71656300000001
-5.607448587757323 -5.389241009136254 25.704722
-5.607448587757319 -5.38924100913625 130.03269
-5.607448587757319 -5.38924100913625 40.2512
-5.607448587757315 -5.389241009136247 127.060829
-7.777094473931639 -7.474457556748126 126.591588
-50.08518752043134 -48.136178568752925 16.789139
-5.6074485877573235 -5.389241009136255 5.996589999999999
-49.00036631124376 -47.093571961373804 113.29642000000001
-50.08518752043133 -48.13617856875292 13.191622000000004
-6.149860926250688 -5.910545979252629 132.378897
-6.692273264744064 -6.431850949369014 41.815338
-6.149860926250693 -5.910545979252634 8.029969
-5.607448587757316 -5.3892410091362475 128.15572600000002
-5.6074485877573235 -5.389241009136255 8.49921
-52.79724574509902 -50.74270008648117 130.81475900000004
-6.149860926250695 -5.910545979252635 36.810097999999996
-47.915541634256996 -46.050962021141025 15.068587000000008
-44.66107453889511 -42.92313886615005 128.468553
-49.542778649737116 -47.61487693149017 24.140585000000005
-46.83072042506942 -45.00835541376191 23.04568800000001
-49.000366311243745 -47.0935719613738 100.93973400000002
-5.6074485877573235 -5.389241009136255 20.386655
-5.6074485877573235 -5.389241009136255 5.058108000000001
-5.607448587757322 -5.389241009136253 23.202102
-5.607448587757321 -5.389241009136252 123.932554
-6.149860926250682 -5.910545979252623 129.407035
-5.607448587757313 -5.389241009136244 130.345518
-49.000366311243745 -47.0935719613738 32.586927
-5.607448587757313 -5.389241009136245 133.78662000000003
-5.607448587757324 -5.3892410091362555 18.353276
-48.45795397275037 -46.57226699125741 20.230241000000003
-60.37914387944055 40.08884041939796 66.52871000000002
-59.12566029518851 39.256587754839636 16.007070000000002
-59.12566029518848 39.256587754839614 21.794378000000005
-55.991945324126505 37.17595210280682 88.27022000000001
-57.245432915333126 38.0082074277898 97.65504500000002
-57.24543291533314 38.008207427789806 25.391894999999995
-59.125660295188496 39.25658775483963 11.783898999999998
-59.75240409079181 39.67271541733112 48.541129000000005
-60.37914387944055 40.08884041939796 51.51299000000001
-57.24543291533314 38.008207427789806 17.727620999999996
-59.75240409079181 39.67271541733112 41.50251000000001
-59.75240409079181 39.67271541733112 64.182504
-59.125660295188496 39.25658775483963 72.941673
-56.61868911972981 37.5920797652983 96.87297600000001
-58.498916499585164 38.840460092348124 88.73946199999999
-62.25937526625049 41.33722340687243 57.143885
-59.75240409079181 39.67271541733112 89.052289
-57.87217270398186 38.42433242985664 98.12428600000001
-55.99194532412649 37.17595210280681 100.470493
-57.872172703981875 38.42433242985665 35.40237400000001
-7.106009406159548 4.718047636963456 126.90441600000001
-61.632631470647176 40.92109574438095 61.054229000000014
-55.36520152852319 36.75982444031533 94.37035600000002
-57.87217270398186 38.42433242985664 98.437114
-58.49891649958518 38.84046009234813 75.287879
-59.12566029518848 39.256587754839614 70.439053
-8.35949699736619 5.550302961946448 10.532589
-59.75240409079181 39.67271541733112 16.163483999999997
-60.37914387944055 40.08884041939796 85.92401400000001
-59.75240409079181 39.67271541733112 78.885396
-57.24543291533314 38.008207427789806 102.660285
-57.24543291533314 38.008207427789806 14.13010500000001
-59.125660295188496 39.25658775483963 89.52153
-61.00588767504385 40.504968081889444 54.954093
-59.7524040907918 39.67271541733111 63.400435
-57.24543291533314 38.008207427789806 93.11904700000001
-66.0198300259612 43.83398406097207 133.78662
-57.245432915333126 38.0082074277898 110.950214
-57.24543291533314 38.008207427789806 54.01561000000001
-61.632631470647176 40.92109574438095 62.461952000000004
-54.73846173987445 36.343699438248485 112.51435099999999
-58.49891649958518 38.84046009234813 95.77808
-59.125660295188496 39.25658775483963 55.110506
-62.259375266250494 41.33722340687244 55.736160999999996
-59.125660295188496 39.25658775483963 64.80815900000002
-55.36520152852317 36.75982444031532 100.314079
-60.37914387944055 40.08884041939796 39.625545
-54.73846173987445 36.343699438248485 109.073249
-52.8582303530645 35.09531645077401 112.04511000000002
-10.239724377221544 6.7986832889962665 48.697543
-56.61868911972982 37.592079765298315 114.54773
-7.106009406159553 4.71804763696346 9.437693
-61.63263147064717 40.92109574438094 72.00319100000002
-58.49891649958518 38.84046009234813 87.488152
-58.49891649958518 38.84046009234813 77.790499
-64.13960264610586 42.58560373392226 92.649805
-53.48497414866781 35.51144411326549 123.30689900000002
-57.872172703981875 38.42433242985665 40.40761400000001
-58.49891649958518 38.84046009234813 62.931194000000005
-59.12566029518851 39.256587754839636 65.2774
-60.37914387944055 40.08884041939796 21.01231
-59.75240409079181 39.67271541733112 34.93313300000001
-55.991945324126505 37.17595210280682 68.874916
-59.75240409079181 39.67271541733112 80.762361
-57.872172703981875 38.42433242985665 99.21918300000002
-58.49891649958518 38.84046009234813 84.985532
-58.49891649958518 38.84046009234813 85.298359
-59.125660295188496 39.25658775483963 27.894514999999995
-57.87217270398186 38.42433242985664 88.895875
-52.8582303530645 35.09531645077401 114.70414299999999
-59.7524040907918 39.67271541733111 42.597407000000004
-59.75240409079181 39.67271541733112 26.330377
-13.373439348283538 8.879318941029075 64.338917
-59.75240409079181 39.67271541733112 67.936433
-58.49891649958518 38.84046009234813 70.595467
-56.61868911972981 37.5920797652983 94.839598
-61.632631470647176 40.92109574438095 91.86773700000002
-58.49891649958518 38.84046009234813 74.03657
-50.978002973209136 33.84693612372418 126.43517400000002
-59.75240409079181 39.67271541733112 32.11768599999999
-60.379143879440534 40.088840419397954 66.059469
-59.125660295188496 39.25658775483963 69.656985
-59.125660295188496 39.25658775483963 33.52540900000002
-55.36520152852317 36.75982444031532 44.78719900000001
-61.005887675043866 40.50496808188945 83.264981
-57.24543291533314 38.008207427789806 8.968451000000002
-59.125660295188496 39.25658775483963 80.449533
-62.25937526625049 41.33722340687243 63.244021000000004
-54.73846173987445 36.343699438248485 102.03463
-52.23149056441577 34.679191448707165 125.027451
-57.24543291533314 38.008207427789806 105.632146
-59.7524040907918 39.67271541733111 71.064708
-60.379143879440534 40.088840419397954 32.27409900000001
-59.12566029518848 39.256587754839614 81.700843
-54.111717944271135 35.92757177575699 107.50911100000002
-52.85823035306449 35.095316450774 111.106627
-57.245432915333126 38.0082074277898 76.226362
-55.36520152852319 36.75982444031533 25.548308000000002
-58.49891649958518 38.84046009234813 79.823878
-59.75240409079181 39.67271541733112 81.85725700000002
-59.12566029518848 39.256587754839614 85.454773
-58.49891649958518 38.84046009234813 82.795739
-59.125660295188496 39.25658775483963 19.917414000000015
-61.63263147064717 40.92109574438094 131.596828
-54.11171794427111 35.927571775756974 128.937794
-59.12566029518848 39.256587754839614 77.321258
-59.7524040907918 39.67271541733111 49.323198
-58.49891649958518 38.84046009234813 56.048989000000006
-58.498916499585164 38.840460092348124 94.52677000000001
-62.25937526625049 41.33722340687243 72.159605
-59.125660295188496 39.25658775483963 87.175324
-59.125660295188496 39.25658775483963 80.293119
-59.125660295188496 39.25658775483963 63.869676000000005
-58.49891649958518 38.84046009234813 78.728982
-62.88611505489922 41.753348408939274 67.15436500000001
-59.125660295188496 39.25658775483963 91.39849500000001
-6.479265610556236 4.301919974471966 5.527349
-54.73846173987445 36.343699438248485 109.229662
-55.36520152852319 36.75982444031533 84.359877
-59.125660295188496 39.25658775483963 81.075188
-8.986236786014915 5.966427964013284 130.501932
-52.23149056441577 34.679191448707165 124.08896800000001
-57.872172703981875 38.42433242985665 47.44623300000001
-62.88611505489922 41.753348408939274 83.10856700000001
-59.7524040907918 39.67271541733111 61.99271100000001
-55.36520152852319 36.75982444031533 115.01697100000001
-56.61868911972982 37.592079765298315 51.20016300000002
-59.75240409079181 39.67271541733112 80.136706
-57.872172703981875 38.42433242985665 26.643205000000002
-59.75240409079181 39.67271541733112 29.458651999999994
-61.632631470647176 40.92109574438095 57.613126
-60.37914387944055 40.08884041939796 63.71326200000001
-58.49891649958518 38.84046009234813 78.57256800000002
-58.498916499585164 38.840460092348124 84.829118
-59.7524040907918 39.67271541733111 61.52347
-59.7524040907918 39.67271541733111 11.00183000000001
-58.498916499585164 38.840460092348124 88.583048
-59.75240409079181 39.67271541733112 68.249261
-57.24543291533314 38.008207427789806 99.68842400000001
-59.75240409079181 39.67271541733112 69.344157
-59.12566029518851 39.256587754839636 18.19686200000001
-6.479265610556238 4.301919974471967 132.53531
-55.99194532412649 37.17595210280681 38.999891000000005
-58.49891649958518 38.84046009234813 73.25450100000002
-59.7524040907918 39.67271541733111 72.78526
-57.24543291533314 38.008207427789806 56.361816000000005
-54.111717944271135 35.92757177575699 41.346097
-56.61868911972982 37.592079765298315 91.085668
-57.872172703981875 38.42433242985665 102.347457
-6.4792656105562365 4.301919974471966 4.901694
-59.75240409079181 39.67271541733112 79.98029200000002
-55.36520152852319 36.75982444031533 92.336978
-56.61868911972982 37.592079765298315 45.882095000000014
-57.245432915333126 38.0082074277898 113.140006
-56.61868911972982 37.592079765298315 35.871615999999996
-59.75240409079181 39.67271541733112 49.79243900000001
-57.24543291533314 38.008207427789806 94.05752900000002
-57.872172703981875 38.42433242985665 65.74664100000001
-55.365201528523166 36.759824440315306 120.960693
-59.125660295188496 39.25658775483963 55.26692
-56.61868911972982 37.592079765298315 47.91547400000001
-59.12566029518848 39.256587754839614 65.433814
-54.73846173987445 36.343699438248485 114.07848800000001
-62.25937526625049 41.33722340687243 62.77478
-58.49891649958518 38.84046009234813 53.23354100000002
-55.36520152852319 36.75982444031533 48.384715
-59.125660295188496 39.25658775483963 12.409553999999998
-59.125660295188496 39.25658775483963 43.53588899999999
-59.125660295188496 39.25658775483963 41.03326899999999
-59.7524040907918 39.67271541733111 90.77284
-58.49891649958518 38.84046009234813 76.069948
-60.37914387944055 40.08884041939796 61.679884
-55.36520152852319 36.75982444031533 116.268281
-58.49891649958518 38.84046009234813 39.469132
-59.12566029518848 39.256587754839614 67.46719200000001
-9.612980581618224 6.382555626504772 127.53007099999999
-6.479265610556238 4.301919974471968 131.440414
-57.872172703981875 38.42433242985665 28.676583000000015
-61.005887675043866 40.50496808188945 51.669404
-59.12566029518848 39.256587754839614 103.75518100000001
-58.498916499585164 38.840460092348124 104.69366400000001
-60.379143879440534 40.088840419397954 66.685123
-54.111717944271135 35.92757177575699 122.36841699999998
-57.872172703981875 38.42433242985665 44.943613000000006
-55.36520152852317 36.75982444031532 125.965933
-59.125660295188496 39.25658775483963 77.00843100000002
-55.99194532412649 37.17595210280681 89.36511700000001
-59.75240409079181 39.67271541733112 104.380836
-59.125660295188496 39.25658775483963 93.74470100000002
-59.75240409079181 39.67271541733112 85.141945
-57.245432915333126 38.0082074277898 97.342218
-55.991945324126505 37.17595210280682 85.7676
-60.379143879440534 40.088840419397954 25.07906700000001
-60.379143879440555 40.08884041939797 14.912174
-59.12566029518848 39.256587754839614 109.698904
-59.75240409079181 39.67271541733112 32.430513
-57.872172703981875 38.42433242985665 52.764300000000006
-59.75240409079181 39.67271541733112 96.40373500000001
-57.872172703981875 38.42433242985665 18.978931000000003
-59.75240409079181 39.67271541733112 59.959332
-59.125660295188496 39.25658775483963 60.428574
-59.125660295188496 39.25658775483963 23.827757
-61.005887675043866 40.50496808188945 61.367056000000005
-59.125660295188496 39.25658775483963 44.630785
-57.872172703981875 38.42433242985665 25.23548100000001
-58.49891649958519 38.84046009234814 8.342796000000002
-54.111717944271135 35.92757177575699 109.54249
-58.498916499585164 38.840460092348124 84.047049
-59.75240409079181 39.67271541733112 32.586927
-57.872172703981875 38.42433242985665 38.530649000000004
-59.125660295188496 39.25658775483963 27.425273
-58.49891649958518 38.84046009234813 17.25838
-60.37914387944055 40.08884041939796 48.853956
-57.872172703981875 38.42433242985665 96.090908
-59.75240409079181 39.67271541733112 72.472432
-57.872172703981875 38.42433242985665 33.212582000000005
-60.37914387944055 40.08884041939796 59.333677
-58.49891649958519 38.84046009234814 97.18580400000002
-58.498916499585164 38.840460092348124 71.221122
-58.49891649958518 38.84046009234813 79.35463700000001
-56.61868911972982 37.592079765298315 36.340857
-59.12566029518848 39.256587754839614 70.28264
-57.87217270398186 38.42433242985664 100.001251
-59.7524040907918 39.67271541733111 31.961272
-61.632631470647176 40.92109574438095 69.03133000000001
-57.872172703981875 38.42433242985665 101.40897500000001
-51.60474676881247 34.26306378621568 127.842898
-61.00588767504385 40.504968081889444 51.043749
-57.872172703981875 38.42433242985665 31.022789000000014
-54.111717944271135 35.92757177575699 117.83241799999999
-61.63263147064719 40.921095744380956 54.328438
-59.7524040907918 39.67271541733111 63.08760699999999
-55.991945324126505 37.17595210280682 98.2807
-61.63263147064717 40.92109574438094 57.925954000000004
-59.12566029518848 39.256587754839614 58.39519500000001
-59.75240409079181 39.67271541733112 46.664164
-57.872172703981875 38.42433242985665 49.479611000000006
-54.111717944271135 35.92757177575699 98.90635499999999
-55.99194532412649 37.17595210280681 36.653684
-58.498916499585164 38.840460092348124 70.90829500000001
-57.245432915333126 38.0082074277898 111.57586800000001
-59.125660295188496 39.25658775483963 104.22442200000002
-57.24543291533314 38.008207427789806 80.91877400000001
-59.75240409079181 39.67271541733112 82.952153
-59.125660295188496 39.25658775483963 48.228302
-60.379143879440534 40.088840419397954 92.493392
-59.12566029518848 39.256587754839614 84.51629
-55.36520152852317 36.75982444031532 115.48621200000001
-55.36520152852317 36.75982444031532 118.458073
-60.379143879440534 40.088840419397954 90.303599
-59.75240409079181 39.67271541733112 63.55684900000001
-61.632631470647176 40.92109574438095 18.822517
-59.125660295188496 39.25658775483963 81.54442900000001
-57.24543291533314 38.008207427789806 102.973112
-58.49891649958518 38.84046009234813 10.84541600000001
-58.49891649958519 38.84046009234814 25.861136
-6.479265610556222 4.301919974471957 132.066069
-59.125660295188496 39.25658775483963 68.71850200000002
-54.73846173987444 36.34369943824848 98.749941
-62.25937526625049 41.33722340687243 55.892574999999994
-54.73846173987445 36.343699438248485 64.964572
-58.49891649958518 38.84046009234813 86.706083
-59.125660295188496 39.25658775483963 46.50775000000001
-59.7524040907918 39.67271541733111 38.217821999999984
-57.87217270398186 38.42433242985664 96.716563
-56.6186891197298 37.592079765298294 124.401796
-54.73846173987444 36.34369943824848 30.55354800000001
-59.7524040907918 39.67271541733111 50.57450800000001
-59.125660295188496 39.25658775483963 62.61836600000001
-57.872172703981875 38.42433242985665 49.16678400000001
-61.63263147064717 40.92109574438094 53.077128
-56.61868911972981 37.5920797652983 102.191044
-58.49891649958518 38.84046009234813 22.420033000000004
-54.111717944271135 35.92757177575699 124.55820899999999
-57.872172703981875 38.42433242985665 26.486791000000007
-57.87217270398186 38.42433242985664 101.721803
-56.61868911972981 37.5920797652983 88.426634
-57.245432915333126 38.0082074277898 105.00649100000001
-60.379143879440534 40.088840419397954 91.711323
-61.63263147064717 40.92109574438094 68.09284700000002
-58.49891649958518 38.84046009234813 83.577808
-60.379143879440534 40.088840419397954 74.505811
-58.49891649958518 38.84046009234813 58.08236700000001
-59.7524040907918 39.67271541733111 39.156304
-57.87217270398186 38.42433242985664 41.971752000000016
-57.245432915333126 38.0082074277898 62.30553900000001
-62.259375266250494 41.33722340687244 67.78002
-57.24543291533314 38.008207427789806 105.319319
-59.125660295188496 39.25658775483963 59.80291900000001
-8.35949699736619 5.550302961946448 127.060829
-59.75240409079181 39.67271541733112 43.379475
-67.27331761716782 44.66623938595505 133.160965
-60.379143879440534 40.088840419397954 33.36899600000001
-55.36520152852317 36.75982444031532 113.76566099999998
-57.872172703981875 38.42433242985665 53.389955000000015
-58.49891649958518 38.84046009234813 77.634086
-54.73846173987444 36.34369943824848 115.79904
-58.49891649958518 38.84046009234813 69.96981200000002
-59.75240409079181 39.67271541733112 56.831058
-58.498916499585164 38.840460092348124 97.498631
-53.48497414866781 35.51144411326549 112.20152299999998
-56.61868911972984 37.59207976529832 9.281279
-59.125660295188496 39.25658775483963 34.776719
-61.005887675043866 40.50496808188945 51.982231000000006
-56.61868911972982 37.592079765298315 32.743341
-57.872172703981875 38.42433242985665 30.24072100000001
-59.75240409079181 39.67271541733112 64.495331
-59.12566029518848 39.256587754839614 93.588288
-60.379143879440534 40.088840419397954 92.02415
-59.125660295188496 39.25658775483963 54.484851000000006
-57.872172703981875 38.42433242985665 86.23684200000001
-59.125660295188496 39.25658775483963 57.456711999999996
-60.37914387944055 40.08884041939796 14.75576000000001
-59.75240409079181 39.67271541733112 66.841537
-56.61868911972982 37.592079765298315 72.628846
-7.106009406159553 4.71804763696346 23.045688000000002
-57.87217270398186 38.42433242985664 94.996011
-8.986236786014915 5.966427964013284 15.381415000000002
-59.75240409079181 39.67271541733112 69.187743
-59.125660295188496 39.25658775483963 58.23878100000002
-7.1060094061595525 4.718047636963459 9.906934000000001
-52.85823035306449 35.095316450774 46.97699200000001
-55.991945324126505 37.17595210280682 122.524831
-60.379143879440555 40.08884041939797 36.96651200000001
-56.61868911972982 37.592079765298315 37.279339
-52.85823035306449 35.095316450774 109.386076
-57.245432915333126 38.0082074277898 106.414215
-55.991945324126505 37.17595210280682 112.98359200000002
-58.498916499585164 38.840460092348124 101.878216
-57.87217270398186 38.42433242985664 99.375596
-54.111717944271135 35.92757177575699 108.60400700000001
-59.12566029518848 39.256587754839614 74.192983
-57.872172703981875 38.42433242985665 101.252561
-60.37914387944055 40.08884041939796 52.138645000000004
-55.99194532412649 37.17595210280681 89.99077200000002
-54.73846173987445 36.343699438248485 94.21394300000001
-55.991945324126505 37.17595210280682 64.651745
-59.125660295188496 39.25658775483963 87.800979
-59.125660295188496 39.25658775483963 78.41615400000002
-58.49891649958518 38.84046009234813 70.751881
-57.24543291533314 38.008207427789806 56.205403
-59.125660295188496 39.25658775483963 6.622245000000001
-50.978002973209136 33.84693612372418 107.978352
-50.35125917760582 33.43080846123268 108.29118000000001
-57.872172703981875 38.42433242985665 100.62690600000002
-9.612980581618231 6.382555626504776 23.202102
-6.47926561055623 4.3019199744719625 129.71986299999998
-54.73846173987444 36.34369943824848 121.58634800000002
-8.359496997366188 5.550302961946446 21.481551000000003
-59.75240409079181 39.67271541733112 52.920714
-59.125660295188496 39.25658775483963 44.474372
-57.24543291533314 38.008207427789806 104.850077
-59.125660295188496 39.25658775483963 73.880156
-57.87217270398188 38.424332429856655 20.855895999999998
-9.61298058161823 6.382555626504775 24.140585
-59.125660295188496 39.25658775483963 75.44429300000002
-54.111717944271135 35.92757177575699 123.93255399999998
-62.25937526625049 41.33722340687243 58.708022
-6.479265610556235 4.301919974471965 7.717141
-59.125660295188496 39.25658775483963 75.600707
-57.872172703981875 38.42433242985665 36.184443
-59.7524040907918 39.67271541733111 84.672704
-57.872172703981875 38.42433242985665 59.49009100000001
-51.60474676881246 34.263063786215675 110.480972
-59.12566029518851 39.256587754839636 56.51823000000001
-61.005887675043866 40.50496808188945 12.09672600000001
-56.61868911972984 37.59207976529832 122.68124400000002
-57.872172703981875 38.42433242985665 98.59352800000002
-59.75240409079181 39.67271541733112 90.147185
-61.63263147064717 40.92109574438094 69.813398
-59.75240409079181 39.67271541733112 67.310778
-59.125660295188496 39.25658775483963 61.836297
-57.24543291533314 38.008207427789806 53.702783000000004
-58.498916499585164 38.840460092348124 89.67794400000001
-54.73846173987444 36.34369943824848 123.776141
-55.36520152852317 36.75982444031532 92.962633
-59.12566029518848 39.256587754839614 55.423334000000004
-10.239724377221552 6.798683288996272 29.927893
-58.49891649958518 38.84046009234813 39.938373
-56.61868911972981 37.5920797652983 122.994072
-57.245432915333126 38.0082074277898 103.911595
-55.991945324126505 37.17595210280682 49.636025
-62.25937526625049 41.33722340687243 82.639326
-54.111717944271135 35.92757177575699 97.967873
-10.866468172824856 7.214810951487756 99.84483800000001
-59.7524040907918 39.67271541733111 76.53918900000001
-57.245432915333126 38.0082074277898 42.28457900000001
-56.61868911972982 37.592079765298315 103.129526
-57.245432915333126 38.0082074277898 104.068009
-55.36520152852319 36.75982444031533 46.194923
-60.379143879440534 40.088840419397954 19.291759
-59.125660295188496 39.25658775483963 73.098087
-57.24543291533314 38.008207427789806 33.681823
-58.498916499585164 38.840460092348124 82.482912
-57.245432915333126 38.0082074277898 102.816699
-57.24543291533314 38.008207427789806 95.152425
-54.73846173987445 36.343699438248485 92.80621900000001
-55.99194532412649 37.17595210280681 121.27352099999999
-59.12566029518851 39.256587754839636 66.372296
-57.872172703981875 38.42433242985665 28.989411
-56.61868911972982 37.592079765298315 115.64262600000004
-58.49891649958518 38.84046009234813 86.54966900000001
-57.87217270398186 38.42433242985664 95.934494
-56.61868911972981 37.5920797652983 106.88345600000001
-59.7524040907918 39.67271541733111 74.975052
-8.359496997366191 5.550302961946449 47.133405
-57.87217270398186 38.42433242985664 75.913534
-57.245432915333126 38.0082074277898 105.94497400000002
-58.49891649958518 38.84046009234813 20.073827
-59.125660295188496 39.25658775483963 23.358516
-60.37914387944055 40.08884041939796 65.59022700000001
-56.61868911972982 37.592079765298315 74.662225
-57.872172703981875 38.42433242985665 95.46525300000002
-60.37914387944055 40.08884041939796 23.984170999999996
-59.75240409079181 39.67271541733112 13.973690999999999
-52.85823035306449 35.09531645077399 111.888696
-55.99194532412649 37.17595210280681 37.592167
-61.005887675043866 40.50496808188945 51.825818000000005
-57.872172703981875 38.42433242985665 99.062769
-56.61868911972982 37.592079765298315 17.101966000000008
-60.379143879440534 40.088840419397954 33.838237000000014
-55.99194532412652 37.175952102806825 49.01037000000001
-56.61868911972982 37.592079765298315 116.42469499999999
-56.61868911972984 37.59207976529832 117.206763
-58.49891649958518 38.84046009234813 79.511051
-57.872172703981875 38.42433242985665 17.414794
-59.7524040907918 39.67271541733111 31.648443999999998
-59.75240409079181 39.67271541733112 45.56926800000001
-58.49891649958518 38.84046009234813 109.85531700000001
-60.37914387944055 40.08884041939796 82.01367100000002
-61.005887675043866 40.50496808188945 87.64456500000001
-59.75240409079181 39.67271541733112 91.554909
-54.73846173987444 36.34369943824848 118.30166000000001
-59.12566029518851 39.256587754839636 29.615066
-59.125660295188496 39.25658775483963 40.564028000000015
-59.75240409079181 39.67271541733112 41.189682999999995
-58.498916499585164 38.840460092348124 130.03269
-56.61868911972982 37.592079765298315 44.16154400000001
-8.986236786014913 5.966427964013283 16.789139000000002
-58.49891649958518 38.84046009234813 79.04180900000001
-58.49891649958518 38.84046009234813 34.151064
-56.61868911972982 37.592079765298315 108.76042100000001
-57.872172703981875 38.42433242985665 30.397135000000006
-59.75240409079181 39.67271541733112 81.388016
-57.87217270398186 38.42433242985664 103.59876700000001
-58.49891649958518 38.84046009234813 83.890636
-60.37914387944055 40.08884041939796 60.11574600000001
-8.98623678601491 5.966427964013279 35.558788
-6.479265610556218 4.301919974471954 131.127587
-53.48497414866783 35.511444113265505 125.34027800000001
-57.872172703981875 38.42433242985665 95.30883900000002
-59.75240409079181 39.67271541733112 50.105266
-54.111717944271135 35.92757177575699 105.475732
-58.49891649958519 38.84046009234814 31.179203000000005
-57.872172703981875 38.42433242985665 43.22306199999999
-55.991945324126505 37.17595210280682 121.742762
-7.732753201762871 5.134175299454953 16.632725
-58.498916499585164 38.840460092348124 94.683184
-54.73846173987445 36.343699438248485 103.44235400000001
-58.49891649958518 38.84046009234813 54.797679
-59.7524040907918 39.67271541733111 66.997951
-61.632631470647176 40.92109574438095 86.080428
-59.7524040907918 39.67271541733111 104.53725
-61.632631470647176 40.92109574438095 53.54636899999999
-57.87217270398186 38.42433242985664 59.646505000000005
-10.866468172824867 7.214810951487763 49.948853
-55.99194532412649 37.17595210280681 113.609247
-7.732753201762871 5.134175299454953 10.219761
-53.48497414866782 35.5114441132655 79.667464
-59.75240409079181 39.67271541733112 83.421394
-57.87217270398186 38.42433242985664 69.500571
-57.24543291533314 38.008207427789806 76.69560300000002
-54.11171794427113 35.92757177575698 119.39655599999999
-57.872172703981846 38.424332429856634 122.05558900000001
-58.49891649958518 38.84046009234813 30.70996200000001
-59.125660295188496 39.25658775483963 23.514930000000014
-54.11171794427113 35.92757177575698 110.168145
-56.61868911972982 37.592079765298315 100.157665
-56.61868911972982 37.592079765298315 9.124865000000014
-58.49891649958518 38.84046009234813 64.02609
-57.24543291533314 38.008207427789806 116.73752200000001
-56.61868911972982 37.592079765298315 8.186383
-52.858230353064506 35.09531645077401 36.81009800000002
-59.7524040907918 39.67271541733111 60.897814999999994
-61.005887675043866 40.50496808188945 40.87685500000002
-56.61868911972982 37.592079765298315 39.312718000000004
-57.24543291533311 38.00820742778979 108.447594
-61.005887675043866 40.50496808188945 68.405675
-58.49891649958518 38.84046009234813 99.53201000000001
-59.7524040907918 39.67271541733111 89.208703
-55.991945324126505 37.17595210280682 118.14524600000001
-7.1060094061595525 4.718047636963459 11.627485
-58.49891649958518 38.84046009234813 29.145824999999988
-54.73846173987445 36.343699438248485 121.899176
-58.49891649958518 38.84046009234813 28.207341999999997
-59.75240409079181 39.67271541733112 20.699481999999996
-59.12566029518851 39.256587754839636 93.43187400000001
-59.12566029518848 39.256587754839614 21.168723999999997
-58.49891649958518 38.84046009234813 58.551609000000006
-59.12566029518848 39.256587754839614 82.17008400000002
-58.49891649958518 38.84046009234813 73.56732800000002
-56.61868911972982 37.592079765298315 28.52017000000001
-59.75240409079181 39.67271541733112 71.846777
-55.36520152852317 36.75982444031532 112.827178
-55.99194532412649 37.17595210280681 124.24538200000002
-57.24543291533315 38.00820742778981 19.604585999999998
-56.61868911972981 37.5920797652983 77.164844
-56.61868911972982 37.592079765298315 10.063347999999998
-58.498916499585164 38.840460092348124 96.56014900000001
-57.24543291533314 38.008207427789806 106.570629
-59.12566029518848 39.256587754839614 23.671343000000007
-59.75240409079181 39.67271541733112 33.05616800000001
-55.991945324126505 37.17595210280682 85.61118699999999
-53.48497414866782 35.5114441132655 107.66552499999999
-50.97800297320914 33.846936123724184 113.452833
-57.872172703981875 38.42433242985665 39.78195900000001
-59.12566029518851 39.256587754839636 44.00513
-55.36520152852319 36.75982444031533 97.02939
-61.005887675043866 40.50496808188945 67.623606
-54.73846173987447 36.34369943824849 105.78856
-55.99194532412649 37.17595210280681 115.17338500000001
-7.732753201762868 5.134175299454951 15.068587000000003
-61.63263147064717 40.92109574438094 93.27546000000001
-61.63263147064717 40.92109574438094 65.120986
-55.991945324126505 37.17595210280682 118.770901
-58.49891649958518 38.84046009234813 41.658924000000006
-57.24543291533314 38.008207427789806 54.641265000000004
-56.61868911972982 37.592079765298315 43.848717000000015
-55.99194532412649 37.17595210280681 129.876277
-56.61868911972982 37.592079765298315 13.660864000000007
-57.872172703981875 38.42433242985665 117.363177
-58.49891649958518 38.84046009234813 90.616427
-60.37914387944055 40.08884041939796 56.674644
-56.61868911972982 37.592079765298315 59.02085000000002
-55.991945324126505 37.17595210280682 19.761000000000003
-58.49891649958518 38.84046009234813 37.74858100000001
-58.49891649958518 38.84046009234813 72.316018
-58.49891649958518 38.84046009234813 34.307478
-6.479265610556234 4.301919974471964 15.537829000000002
-7.106009406159555 4.718047636963461 18.666103999999997
-59.125660295188496 39.25658775483963 42.440993000000006
-55.36520152852319 36.75982444031533 45.41285400000001
-57.872172703981875 38.42433242985665 76.38277600000002
-57.872172703981875 38.42433242985665 100.93973400000002
-61.00588767504385 40.504968081889444 60.584987000000005
-57.872172703981875 38.42433242985665 26.01755000000001
-60.37914387944055 40.08884041939796 46.351337
-58.49891649958518 38.84046009234813 77.477672
-57.87217270398188 38.424332429856655 101.56538900000001
-62.25937526625049 41.33722340687243 54.17202399999999
-59.125660295188496 39.25658775483963 60.27215999999999
-59.125660295188496 39.25658775483963 95.621666
-57.872172703981875 38.42433242985665 59.17726400000001
-60.37914387944055 40.08884041939796 50.41809400000002
-61.632631470647176 40.92109574438095 51.356576
-57.872172703981875 38.42433242985665 55.57974800000001
-6.479265610556237 4.301919974471967 126.278761
-6.479265610556233 4.301919974471963 17.571207
-57.24543291533314 38.008207427789806 30.866376000000006
-59.125660295188496 39.25658775483963 50.26168
-60.37914387944055 40.08884041939796 42.91023400000001
-59.125660295188496 39.25658775483963 71.690363
-10.23972437722155 6.798683288996271 15.850656
-8.35949699736619 5.550302961946448 24.609826
-54.11171794427113 35.92757177575698 123.46331299999999
-59.75240409079181 39.67271541733112 37.904994
-62.25937526625049 41.33722340687243 56.987471
-58.49891649958518 38.84046009234813 48.07188800000001
-57.872172703981875 38.42433242985665 78.103327
-55.991945324126505 37.17595210280682 46.820578000000005
-6.479265610556234 4.301919974471965 15.225001
-57.24543291533314 38.008207427789806 21.950792000000003
-59.75240409079181 39.67271541733112 50.730921
-53.48497414866781 35.51144411326549 106.72704200000001
-55.365201528523166 36.759824440315306 125.80951900000001
-57.872172703981875 38.42433242985665 26.173963000000004
-53.48497414866782 35.5114441132655 117.676005
-58.498916499585164 38.840460092348124 81.231602
-58.498916499585164 38.840460092348124 70.126226
-55.99194532412649 37.17595210280681 111.732282
-55.991945324126505 37.17595210280682 45.725682000000006
-55.991945324126505 37.17595210280682 86.862497
-6.479265610556229 4.301919974471962 108.916835
-55.36520152852319 36.75982444031533 120.80427899999998
-59.75240409079181 39.67271541733112 89.834358
-54.73846173987445 36.343699438248485 118.61448699999998
-59.12566029518848 39.256587754839614 103.28594
-59.125660295188496 39.25658775483963 47.28981900000001
-57.24543291533314 38.008207427789806 102.503871
-53.48497414866781 35.51144411326549 122.837658
-55.99194532412649 37.17595210280681 119.08372800000001
-60.37914387944055 40.08884041939796 36.02802900000001
-55.99194532412649 37.17595210280681 120.647866
-58.498916499585164 38.840460092348124 84.203463
-60.379143879440555 40.08884041939797 88.113807
-58.498916499585164 38.840460092348124 79.198223
-57.87217270398188 38.424332429856655 11.471071000000002
-6.479265610556236 4.301919974471966 11.314658000000001
-57.872172703981875 38.42433242985665 71.37753600000002
-61.00588767504385 40.504968081889444 91.242082
-6.479265610556233 4.301919974471963 117.988832
-7.732753201762874 5.134175299454955 122.212003
-60.37914387944055 40.08884041939796 42.753820000000005
-7.106009406159553 4.71804763696346 7.873555000000001
-57.245432915333126 38.0082074277898 101.096148
-59.7524040907918 39.67271541733111 52.451473
-55.36520152852317 36.75982444031532 124.87103700000002
-57.87217270398188 38.424332429856655 24.766240000000003
-55.36520152852317 36.75982444031532 83.734222
-59.125660295188496 39.25658775483963 12.722381000000007
-58.49891649958518 38.84046009234813 66.215882
-57.872172703981875 38.42433242985665 90.92925400000001
-57.87217270398186 38.42433242985664 68.56208800000002
-6.479265610556236 4.301919974471966 5.683763000000001
-56.61868911972982 37.592079765298315 35.08954700000001
-57.24543291533314 38.008207427789806 22.576447000000005
-59.75240409079181 39.67271541733112 57.76954
-55.991945324126505 37.17595210280682 118.92731500000001
-60.37914387944055 40.08884041939796 41.815338
-56.61868911972982 37.592079765298315 120.02221100000003
-8.986236786014913 5.966427964013281 27.268860000000004
-58.498916499585164 38.840460092348124 97.811459
-56.61868911972981 37.5920797652983 96.247321
-55.36520152852319 36.75982444031533 74.349397
-59.12566029518848 39.256587754839614 87.95739300000001
-56.61868911972982 37.592079765298315 123.61972700000001
-7.1060094061595525 4.718047636963459 18.50969
-53.48497414866782 35.5114441132655 110.63738599999999
-55.991945324126505 37.17595210280682 115.32979799999998
-7.106009406159551 4.718047636963457 133.473793
-59.75240409079181 39.67271541733112 24.296998000000002
-55.99194532412652 37.175952102806825 114.86055700000001
-52.23149056441577 34.679191448707165 107.03987
-59.7524040907918 39.67271541733111 65.903055
-54.73846173987444 36.34369943824848 78.25974100000002
-59.75240409079181 39.67271541733112 73.723742
-6.479265610556236 4.301919974471966 11.940313
-6.479265610556237 4.301919974471967 26.799618
-54.11171794427113 35.92757177575698 115.955453
-8.986236786014917 5.966427964013285 127.217243
-8.359496997366188 5.550302961946446 27.738101000000004
-7.106009406159551 4.718047636963457 61.210642
-55.36520152852319 36.75982444031533 93.90111500000002
-50.97800297320914 33.846936123724184 117.519591
-54.73846173987444 36.34369943824848 121.11710700000002
-61.005887675043866 40.50496808188945 90.46001300000002
-59.125660295188496 39.25658775483963 52.607886
-54.111717944271135 35.92757177575699 120.33503799999998
-55.991945324126505 37.17595210280682 28.832997000000006
-58.498916499585164 38.840460092348124 13.504450000000011
-7.10600940615954 4.718047636963451 111.263041
-55.99194532412649 37.17595210280681 100.78332
-9.61298058161822 6.382555626504768 120.178624
-6.4792656105562365 4.301919974471966 45.256440000000005
-54.73846173987447 36.34369943824849 21.325137000000005
-59.12566029518848 39.256587754839614 87.33173800000002
-58.49891649958518 38.84046009234813 73.410915
-56.61868911972982 37.592079765298315 80.60594700000001
-61.00588767504387 40.50496808188946 40.720442
-7.106009406159548 4.718047636963456 45.100027
-56.61868911972982 37.592079765298315 38.37423600000002
-56.61868911972982 37.592079765298315 52.295059000000016
-57.24543291533314 38.008207427789806 34.62030600000001
-8.359496997366188 5.550302961946447 14.286519000000004
-54.73846173987444 36.34369943824848 77.946913
-9.612980581618233 6.382555626504777 29.302238
-56.61868911972982 37.592079765298315 44.317958000000004
-59.125660295188496 39.25658775483963 53.859196
-55.991945324126505 37.17595210280682 87.01891
-10.239724377221552 6.798683288996272 26.956032
-55.991945324126505 37.17595210280682 119.24014199999999
-8.986236786014906 5.966427964013278 110.7938
-54.73846173987445 36.343699438248485 114.39131599999999
-57.24543291533314 38.008207427789806 106.101387
-54.111717944271135 35.92757177575699 110.01173100000001
-70.40702858127526 46.74687237756323 134.255862
-7.732753201762871 5.134175299454953 28.363756
-54.73846173987445 36.343699438248485 125.183864
-59.125660295188496 39.25658775483963 47.759060000000005
-7.106009406159553 4.71804763696346 22.26362
-60.37914387944055 40.08884041939796 40.09478699999999
-56.61868911972984 37.59207976529832 42.128165
-9.612980581618233 6.382555626504777 21.637965
-52.23149056441577 34.679191448707165 116.58110800000001
-8.986236786014915 5.966427964013284 127.373657
-8.359496997366188 5.550302961946447 126.591588
-59.125660295188496 39.25658775483963 57.30029900000001
-56.61868911972982 37.592079765298315 15.694242000000008
-58.49891649958518 38.84046009234813 10.689003
-54.73846173987445 36.343699438248485 116.89393599999998
-8.986236786014913 5.966427964013283 17.884035
-55.36520152852317 36.75982444031532 24.92265300000001
-57.24543291533314 38.008207427789806 130.189104
-59.125660295188496 39.25658775483963 58.86443599999999
-53.48497414866781 35.51144411326549 119.70938300000002
-58.498916499585164 38.840460092348124 82.326498
-6.479265610556235 4.301919974471965 38.061408
-59.125660295188496 39.25658775483963 20.386655
-54.111717944271135 35.92757177575699 116.11186700000002
-54.11171794427113 35.92757177575698 76.85201700000002
-55.365201528523166 36.759824440315306 107.196284
-6.479265610556229 4.301919974471962 127.686484
-6.479265610556229 4.301919974471962 105.162905
-56.61868911972982 37.592079765298315 18.353276
-57.24543291533315 38.00820742778981 24.453412000000004
-57.24543291533314 38.008207427789806 75.757121
-60.379143879440534 40.088840419397954 31.49203100000001
-55.99194532412649 37.17595210280681 92.18056400000002
-55.991945324126505 37.17595210280682 71.53395000000002
-57.872172703981875 38.42433242985665 22.889275000000012
-7.732753201762867 5.1341752994549505 40.2512
-58.49891649958518 38.84046009234813 13.348036000000002
-59.7524040907918 39.67271541733111 22.107206000000005
-57.872172703981875 38.42433242985665 37.435753000000005
-54.11171794427113 35.92757177575698 129.09420800000004
-55.991945324126505 37.17595210280682 111.41945500000001
