ply
format ascii 1.0
element vertex 827
property float32 x
property float32 y
property float32 z
element face 0
property list uint8 int32 vertex_indices
end_header
28.592948862708596 60.58651008433646 287.03878033390845
29.12215197888883 61.707855423324304 274.39022002308946
26.66242351571495 56.49585843573215 343.9471261277302
62.66926428370326 -14.134366795963842 181.58234987725774
44.08795919940652 -9.943556761555085 31.68244117798205
66.4380349470821 -14.984371779027239 331.4236796319202
63.96095697664807 -14.425693948411297 204.11381989015385
41.274907039951586 -9.309103629028783 3.592160891944911
67.11187391900228 -15.136348785609261 184.00455551053642
33.50519280353648 -7.556729603698616 16.350876581444247
54.12610628237434 -12.207550992925015 57.69762153147149
69.2172761113612 -15.611199211571034 234.7480417726018
53.89512545905379 -12.155455795750418 56.90077427067038
65.39967416538408 -14.750180867057649 394.32112638684526
66.67511981715558 -15.037843677152955 160.79163927684775
66.0271946878788 -14.891711254214945 172.37096543782366
65.07598432773447 -14.677176166176627 143.46979020459563
62.45100266165824 -14.085140275456109 160.0442808277223
35.55579027697639 -8.01921942501304 8.595086467635914
66.12670730375281 -14.914155235800903 142.16871054297297
65.08460033690358 -14.679119412763377 336.29136853180916
39.81954609031192 -8.98086289223624 2.149120852295178
33.132752010037514 -7.472729658186839 11.291434501686702
63.5218818082398 -14.32666534879048 170.89858909104095
61.15796876137039 -13.793510628368697 93.61902267736421
63.618342193339224 -14.348420933124501 124.17622862472388
61.24888414037205 -13.814015597254022 101.49004623865848
62.94927226118673 -14.197519531276496 329.0419534728068
44.81763792693432 -10.108127813983605 33.1225760755285
69.69685003370392 -15.71936186198105 310.73633927053737
60.09707520589088 -13.554237695839296 81.66838193874004
68.61766812431054 -15.475964191348089 237.27323010461566
63.1852242978088 -14.250735931213368 97.68447206310611
65.88853451188169 -14.860437968818392 274.5528688349973
66.45590510381521 -14.98840219733283 227.71795659140267
67.02978560819749 -15.11783466536487 319.0143196914705
68.13064565755901 -15.366121603252935 246.00925517592427
48.93088114381531 -11.035824812072104 44.039025888316644
68.32913004130555 -15.410887584076391 419.76039354515257
66.21476233931834 -14.934015085523736 163.41397052150114
66.4723264771699 -14.992105858400844 183.43553854190185
38.44319312855428 -8.67044154255953 22.127356138617706
62.420448196524404 -14.078249050189747 129.7823095635982
41.99043144229943 -9.470482328297752 4.39191058499892
68.18683827887732 -15.378795234099217 249.11442263018031
67.61411935565637 -15.249624747987424 417.5902974173058
64.27720933557886 -14.497021207352473 320.34848491303154
68.07436028047154 -15.353427052357908 287.1785190409858
69.52650479987929 -15.680942358507675 377.5589298104281
59.92504300507364 -13.515437715420505 91.72319564036898
62.287671232356686 -14.048302658843822 115.55017367905941
52.65163222148249 -11.874999503036225 53.97416038053176
68.64958461290739 -15.483162606102487 238.82956746962785
35.36621967128374 -7.976463849289939 18.748918966403107
45.47667157370585 -10.256765641486757 35.71539429749352
42.67485862590603 -9.624847390163332 5.032502070101754
61.06415211784515 -13.772351311017387 96.33564201246838
68.72708934403728 -15.500642950107379 242.71821350851803
50.05752651941511 -11.289927348135304 47.140321650910145
61.18446944177559 -13.799487566848363 121.18364673616462
37.29225558889256 -8.41086017471103 21.123942584030384
66.23233207878117 -14.937977748001357 152.8194792932083
67.63529881062652 -15.254401542298133 422.92090701326975
68.17681830612234 -15.376535338888651 196.39481858030226
66.90944165474906 -15.090692403537506 196.0333685795792
69.21052755193803 -15.609677147839765 332.39195311743543
55.231847266405325 -12.456938772217775 61.69774888672855
62.8253467032125 -14.169569477740321 135.40297490799108
59.43187620690313 -13.404209340608615 88.46470328053525
47.333199780183264 -10.675485263255611 39.241490773651485
67.49254540906303 -15.22220507466552 295.80964824266846
54.35374768921118 -12.258893021253531 58.49559813609875
62.10940565808163 -14.008096809250786 133.24768660989417
62.78286900107899 -14.159989096839617 105.82469358776056
67.96039970268787 -15.327724491061153 350.29281579625393
57.92491171692204 -13.06432998996776 91.18896424649827
65.43618339108183 -14.758415123408776 189.3819057826117
61.502200020340375 -13.871148222052453 99.59121612121913
66.19219313966441 -14.92892484950699 248.87281038956456
67.49192854769986 -15.222065948335107 390.15047024307745
38.41582465056963 -8.664268881831761 24.352810063728178
65.28069803493763 -14.723347102740874 146.67113603957984
69.29603430338777 -15.628962259965078 343.1257770836153
57.398882740735196 -12.945689910501187 70.56914379438756
68.30030088340598 -15.404385482977414 412.9036568378823
68.44974321784511 -15.438090566225966 229.48375607683474
41.68368325946077 -9.401298632273983 3.782698606895506
66.42902850265655 -14.982340474040763 200.95291160809438
62.1838580727909 -14.02488873668721 97.41729954335106
34.26754108599738 -7.728668916753188 18.769731803539862
69.6577680051482 -15.710547338098397 401.99072449893134
63.8419053574965 -14.398843158443125 120.68334720852431
67.64414498416892 -15.256396699940689 425.2049998247415
68.99099288046766 -15.560163504964587 409.7371344221925
46.55963580677687 -10.501016373836839 36.788419438209864
67.32842321393846 -15.18518910947487 238.42308109182358
39.35114878105474 -8.875221004606725 1.8125302064212585
57.19771644529414 -12.900319053842056 73.5407889413983
65.88458945793253 -14.859548205069217 157.04819749636005
63.24742502028769 -14.26476462353231 141.8108463591515
67.12130321322995 -15.138475459741539 228.30727492200882
69.50950715676342 -15.677108726100903 293.7961733946995
68.30889713753487 -15.406324274031016 308.7336282830703
65.81548313732773 -14.84396203065801 167.61627044231227
63.40164338195008 -14.299546887459025 241.05136842379324
48.99489858567089 -11.050263245566867 46.05479499614407
69.04081058182287 -15.57139934237124 421.16838813090453
68.71123815056026 -15.497067886871534 283.931845582014
66.08952783010133 -14.905769812358049 150.42314148994024
66.46619103804751 -14.990722077244302 335.25360536860467
67.29608763802854 -15.177896174162901 161.34989975961042
58.98241065462511 -13.302837303603548 75.97702508302676
68.7422094199698 -15.50405311778137 243.4955694046266
59.09106475282033 -13.327343046495686 78.68673046402515
47.65064669658059 -10.747081941561827 39.99640110400229
70.21483842004174 -15.836188474391946 375.90068855708233
41.960515350538316 -9.46373508116016 3.978284578693235
41.160320945378146 -9.283259989264863 3.400779117854596
42.077013333262286 -9.49000992637545 30.465838589385857
66.42261519028592 -14.98089402161373 226.16032788196452
64.43398132528858 -14.532379414141992 178.57193196590046
64.06258397365706 -14.448614805525473 156.16894875640733
51.65035295111072 -11.649171920178995 50.815707284725036
38.04388651851849 -8.58038230610913 6.040220137083608
32.95507121171943 -7.432655698411942 13.898889973620696
49.111145114289315 -11.076481378060206 42.8184696187581
67.83770772218895 -15.300052657426018 333.4430180252037
51.54036624602048 -11.62436562238384 53.93184981249191
54.88418976262613 -12.378528426509247 59.03879430863018
68.04283056606984 -15.346315870290917 241.34796345147245
64.46146451185224 -14.538577946134552 347.8949073118741
65.17982656666476 -14.700596646865698 136.80174499711475
64.00066115223767 -14.434648790749549 205.67712638288208
63.08041265399561 -14.227096811860743 131.13534427120217
61.3448952626587 -13.835669855276715 91.71580397624852
67.99186276478483 -15.334820640430154 175.6476524864063
63.23438974882142 -14.261824660692549 179.79442170726878
69.00803345384955 -15.56400681982309 413.54837167017644
62.58638734114829 -14.115674808457863 140.45738984089317
64.69369095575239 -14.590954079400575 137.85769686366444
65.34848244835958 -14.738635135452057 158.0825681934229
66.44415235430833 -14.985751493286916 168.17864653565093
68.90648541941731 -15.541103771854043 392.1942116913146
53.46687290416484 -12.058868118181605 54.2690157202507
40.678968246078675 -9.174696155176655 3.030492781886567
69.83073430773047 -15.74955799494881 324.5708972534509
56.921941822865676 -12.838121105438248 76.52267646042144
67.87068388595513 -15.307490070319282 206.81371682410764
68.08355961920181 -15.35550186254405 287.94939461004753
66.51241951813921 -15.001148405070301 270.5307249418431
66.33131367538488 -14.960301964001621 165.79732697145363
69.20023036422764 -15.607354729829451 233.96885696298105
68.1589703560089 -15.372509929043124 247.56206818075614
44.270297875407685 -9.984681254672218 32.59057454404677
64.30974153112317 -14.504358488071448 218.94051455203808
56.68049518213657 -12.78366545767016 69.21759407180639
65.12042151764285 -14.687198488103109 135.99821861089183
65.8913676122006 -14.861076943593904 147.2245965275279
68.83682272759494 -15.525392114002852 379.214903430086
64.99150278764805 -14.658122279255856 220.30839127978035
64.7972068108484 -14.614300947787306 125.26818799294004
67.81997241077605 -15.296052652006843 230.45421448739293
67.54913798150105 -15.234968910110355 301.19582042059386
53.422947042242185 -12.04896112068706 55.31065402516367
65.68386144026584 -14.814276197166203 144.022084779843
56.99011119258485 -12.853495960829857 67.0691529173103
65.39674886036508 -14.749521096520986 209.9698823296035
65.04591407905754 -14.670394150633545 152.5056269739648
67.82484469185982 -15.297151541689978 205.24543976877152
59.726007313932996 -13.47054739324703 87.37585609779983
53.364945766000844 -12.035879567514234 56.357489027141085
68.95916195383462 -15.552984387774856 402.87476573815735
68.99442161675134 -15.56093681891416 257.4680548164878
68.5639681156499 -15.463852742011143 337.90126476068
40.2414983049286 -9.0760295969986 2.670942071217819
39.28549021258106 -8.860412432961402 24.550295905065852
61.916925122874964 -13.964684930767925 102.84458207403742
48.57657047173905 -10.955913917056975 42.277448294771126
68.47607490320232 -15.4440293897218 205.8227736919782
66.963634635694 -15.102915037378793 221.29076541537825
67.6202489381838 -15.251007208253062 419.11347976118014
69.05830964655303 -15.57534606493627 261.3429182466211
50.283569170931315 -11.340908794695753 45.89558853558021
62.59093672017642 -14.116700871115729 108.53145250100667
69.55292359176676 -15.686900827928238 382.1430123452465
59.984935140004865 -13.528945731079968 89.00527383305544
57.21586569710745 -12.90441241898897 69.75958137340298
57.736615478513315 -13.021861833840685 74.08219254783091
59.158243789182876 -13.342494543035507 81.40064457483962
66.58908668226442 -15.018439845002426 171.35063490792834
65.48486898546822 -14.769395626476781 300.1119640777632
67.98163100763097 -15.332512979565887 210.73154750470144
32.55003944643688 -7.341305215843583 15.199149348748529
56.116700376790085 -12.65650770869211 66.79180617952578
60.009163464136556 -13.534410164467578 86.28707956372438
62.6362225198294 -14.126914587684128 141.25715693761163
67.49935845224051 -15.223741682001956 391.6760951192764
61.49465158712042 -13.869445755539003 118.50223563198053
58.27535839048067 -13.143369402399335 74.62362461844464
40.821706221902225 -9.206889143702423 26.26047933212543
69.03760862609502 -15.570677176294467 420.4065296690154
42.8785302457578 -9.670783295328595 5.256293176979026
65.38557978062515 -14.747002032804158 125.81388127148382
57.75707581385019 -13.026476438587132 72.18969469355372
62.34161071964494 -14.060468119964714 157.6648958811856
66.59187360112371 -15.019068404055066 276.7048498457713
48.2722892880767 -10.887286625702092 41.51448100323577
59.045535172488634 -13.317074347862793 83.30278290540552
62.45788366725918 -14.086692210973471 112.04447787547538
67.00994326243088 -15.1133594414036 316.71199748061576
69.64641520619345 -15.707986838523027 399.7019175193227
45.81330785643318 -10.332690271387593 36.45735254983769
47.224192975111016 -10.650899971186883 38.27845754441394
68.368482562424 -15.419763114596682 429.6601343883592
68.78805580598261 -15.514393268468964 370.81019548540627
63.45346570465917 -14.311234845276324 303.62338333399873
42.05980064572388 -9.486127793052315 29.384697482703732
68.34185285657412 -15.413757075839838 224.803574409977
69.07676460687875 -15.579508379292921 228.51080959418385
51.0983247451405 -11.524667998933348 47.21281555809465
51.39073909421467 -11.59061885560061 50.02996109755879
66.77121865877591 -15.059517719311485 386.4579878978623
60.686407764651634 -13.687155205651113 84.92482492868082
68.12857894606087 -15.36565547908968 291.8025490690221
67.75270899507436 -15.280882124630404 263.23783520202676
38.735942441014664 -8.736467946553192 22.92003545188525
34.320940415311746 -7.740712551153791 17.653235707592163
42.98729178777162 -9.695313270998307 30.623515885652726
65.73664432331582 -14.826180798857383 144.82308820014578
63.91701386068348 -14.415783059456398 121.49162841439211
66.00105415911985 -14.885815543998097 187.59380177447503
35.825114046511274 -8.079962454135654 9.005887735695259
61.97504452348008 -13.977793125598414 139.90363482289112
51.1273084382737 -11.531204953763257 49.24589674293587
67.20833032960086 -15.158103473538109 342.0082611835672
67.04923822390536 -15.122221989976042 321.31607707086664
33.02955585970943 -7.44945489571212 15.770908427932119
59.74115642151774 -13.4739641086925 101.49054003806113
64.50289267402249 -14.547921614781213 122.03665943295805
69.50838662427938 -15.67685600226064 374.5020261246717
66.24241108690765 -14.940250957993968 251.97174782520293
67.74102258994472 -15.2782463838328 262.46404620417877
66.46063127505745 -14.989468133540027 334.4877326098227
39.70224770387364 -8.954407524721667 2.3217717185545608
68.72099107747746 -15.499267552815562 284.7033982417196
61.88802471048 -13.958166758997217 282.4177685291859
67.54122161003599 -15.233183459151913 300.42658799834345
61.44091853911829 -13.857326854540116 311.7090884043446
69.7554807957675 -15.732585388792883 423.3378384494678
66.90499554796443 -15.089689632804097 416.94291098022774
66.94552622630023 -15.098830883792685 427.60052212202964
66.11443664946626 -14.911387723999145 212.89773490955082
59.24732745003956 -13.362586387936949 79.50012304562618
66.37157218126958 -14.969381829472129 223.8228655622608
67.56604620707769 -15.238782375369613 406.1623650631752
68.43053330953936 -15.433757981613498 263.8397651519386
70.0460542779479 -15.798121058076086 282.83064352792576
33.35221810868629 -7.522227835212472 10.479867669676509
69.586794478966 -15.69454003590125 388.25281133007576
61.3496099081753 -13.836733191982614 102.30305646276568
68.44432325299971 -15.436868152463468 323.3286664803219
64.33855139231522 -14.510856237009204 150.35399045178295
66.35419718621809 -14.96546308946548 320.69233614535557
67.13515070651488 -15.141598610324698 332.0504946741493
61.62422761335612 -13.898670210360871 96.87648437889914
64.93895395330193 -14.646270464688737 126.88249562883081
64.54850715910845 -14.558209462752355 181.7250378980295
58.77177024985466 -13.255329665256339 77.06064865473151
63.39887645736074 -14.298922837895184 154.81421055084397
68.96771865758438 -15.554914258673227 306.27407356364705
69.13177257592228 -15.591914824781773 265.98930948043903
62.88038144587069 -14.181981961724986 136.2048745169528
69.01472574587461 -15.565516193058427 415.07263611457495
49.46381102047662 -11.156021314127058 44.580964551117596
65.94221433879812 -14.872544866383777 362.15544224824174
41.69056954599227 -9.402851758847444 4.188452733316767
62.48047448472926 -14.091787322652095 130.58605561587555
68.77207976853869 -15.510790048042505 245.04992818909565
69.65400404265338 -15.709698417545141 401.22782368001
69.1581554246544 -15.597865187616955 326.25321535006975
66.66261826887721 -15.03502408973792 365.8473959478724
32.993253511446085 -7.44126729830255 12.977899812058277
41.12370862133989 -9.275002480211194 28.153752659175694
34.96123176308252 -7.885123258206367 8.277290529197513
40.039777324075374 -9.030533637114441 2.4948921597587552
55.01709807235522 -12.408504441409281 60.89576786367432
69.64028186398373 -15.706603530302191 305.3502037780344
67.21975782650755 -15.160680820419152 232.97883044031028
64.24131965166632 -14.488926681871614 215.8235627684857
69.02027689326933 -15.566768193609446 259.01831607133863
64.06570361205108 -14.449318405828366 185.87533504426702
51.6282274844495 -11.644181763283173 51.84865694563285
42.16260628908307 -9.509314480953352 4.602496103383443
34.34310707087019 -7.745711997754671 7.539666926458852
67.11738910795668 -15.137592676127548 329.7512236210623
54.32231639035539 -12.251804035736003 64.35734931138049
70.07297878363768 -15.80419358571095 354.47790396527887
68.80614518970783 -15.518473131023724 373.8670510249305
68.94352949664747 -15.549458658115654 303.9658007850184
57.220094420525534 -12.905366161282789 71.647994010856
63.750558683898255 -14.378240915781014 196.2874400316178
65.47234745423367 -14.766571532124644 133.32981402027252
66.62985022323774 -15.027633615610787 279.78979779635046
45.528416863205706 -10.268436225306655 34.5781734250392
53.46609786932451 -12.058693317554248 65.96608938278362
66.54277810324122 -15.007995451738914 272.8466941518788
58.819234356743166 -13.266034675185416 94.17194022732356
65.57053345297632 -14.788716309733235 151.4656792384611
68.18889062673358 -15.379258118700225 218.55535607160195
66.64503884354644 -15.031059242718772 362.79139822495125
40.567030233571735 -9.149449761345993 25.422100972110147
51.12004486807529 -11.52956673498718 48.22589586211589
66.50122497357836 -14.998623598041764 147.77771706737445
66.01183049466626 -14.888246028559715 159.4371211641486
39.505181243025525 -8.90996134089222 1.9801143345377248
60.125724792267796 -13.560699296546316 323.45101231714943
68.67952220853138 -15.489914703201046 212.87779385019428
55.10871521102723 -12.429167684509196 59.83778737716139
68.98134077853913 -15.557986578993471 256.6927602233871
64.57785889868038 -14.564829426429144 122.84490452716508
62.946735047319734 -14.196947290452451 103.11415701937568
60.50362548088367 -13.64593066165639 95.79477367514137
62.278947251115454 -14.046335060337695 215.61369614665062
68.33844502777045 -15.4129884773436 422.0454037321935
67.25504388353238 -15.168639204460721 172.70660653729848
67.3100165078092 -15.181037678324204 357.3108539238432
61.0432405473908 -13.76763493512787 113.65241212731146
66.78678022495058 -15.063027460278551 244.81789583794583
67.29051805229723 -15.176640015046823 173.4991689358262
65.98838261755856 -14.882957616458265 370.5557214292104
66.65760358506736 -15.03389308267817 282.1026116676157
61.708881067998405 -13.917762870728525 109.88000792974294
65.14436283286794 -14.692598189772449 345.47093806465506
67.40447345859464 -15.202341409971439 373.35845035309416
64.8402996931869 -14.624020075851591 190.3799813469176
68.81475067425583 -15.520414003897352 292.4143080955931
70.3515947473551 -15.867032367550884 400.3419475329102
33.43301408000698 -7.540450482427747 11.871900696828327
66.87452779113532 -15.082817963647058 302.1169763429987
64.60654344765985 -14.571298912568587 281.0360023238698
64.96997305745333 -14.65326648420116 141.86760321055513
69.18303993052001 -15.603477615614333 233.18954446639873
62.62597275337212 -14.124602865018542 113.66510940932375
66.32488196559419 -14.958851362237805 154.4158190795764
69.76831797013469 -15.73548067299964 426.3853234937412
65.52889639330718 -14.779325526541575 127.4286229136974
34.928901991301665 -7.877831631952198 7.842676291891886
37.51644405749055 -8.461423430603814 5.795046125404751
60.80363964648882 -13.713595573780642 111.22415812441334
69.39041063258234 -15.650247808294703 356.1454307625803
60.39586680164818 -13.62162687071243 83.29632941345722
68.96277448685287 -15.553799155066704 403.6373871964655
68.83251459751419 -15.524420462405182 378.4510500287471
43.71597666711049 -9.859660171843073 30.968495821933708
45.175375818432194 -10.188811680836666 33.84850199041097
40.735642122002915 -9.187478327733137 27.45461529306411
69.63197870441603 -15.704730843519656 304.5804643400238
68.22909147266996 -15.38832497960034 197.96789798688985
63.205129457315586 -14.255225322126389 114.20859570667737
35.291475343228 -7.959606083992504 19.898683194935376
66.78594294240955 -15.06283862036345 389.508987221953
42.75398982165503 -9.642694565465348 4.805393648548315
66.11736985852255 -14.912049277204927 397.2520907853038
68.27692026285531 -15.399112239856441 407.56882169183194
68.254475397898 -15.394050046169976 303.35033436802206
66.31476885547484 -14.95657046091387 256.6169350339189
62.37216232348081 -14.06735869989663 111.23382497058984
67.64121134245539 -15.255735049153802 424.44366859324487
63.722687873170166 -14.371954959399776 341.14564037713126
61.276953740431196 -13.820346388393611 94.43351030091807
69.26030418739256 -15.620903723281888 338.52692132045166
65.34439034939427 -14.737712207308538 382.1237773659242
63.180894175378015 -14.249759319481798 119.33002395560884
68.76471917362558 -15.509129946403725 216.00920330511795
66.10044808416254 -14.90823275616584 393.441075945853
57.184489494095985 -12.897335859736238 67.87637797689284
64.90457154973855 -14.638515889797102 216.41092528675634
68.02776686104663 -15.342918416458682 240.5706578377635
55.443489583346015 -12.504672380891481 62.500615616709794
33.61005410779446 -7.580379923421147 17.288866181684767
65.84971100082456 -14.851681750728698 271.4668912477566
65.682725600405 -14.814020020914606 323.1341322449007
69.56153353025385 -15.688842705339091 383.6707035070564
67.62576539658556 -15.252251385081308 181.41316166808213
52.43638669519511 -11.826453229922768 52.14633598482191
68.36989589922685 -15.420081877247018 259.96840112380465
38.004356182434016 -8.571466671369006 21.48648988627542
68.29038612453378 -15.402149317606797 410.61749845201547
68.17012140243182 -15.375024925542634 385.44907029913946
36.270283308222716 -8.18036550981592 19.99216067294412
62.11600496529782 -14.009585210779973 104.47030660926984
68.93332327183263 -15.547156755791066 397.53538976015494
67.24566086675877 -15.16652296770181 274.9981211035426
70.07705949088191 -15.805113944576432 285.1473814050255
59.401380343143515 -13.39733133224096 80.31371694702626
63.867716151257696 -14.404664500539374 115.56227008542463
68.59885903855516 -15.471722007875828 342.49885958756306
68.30682463488034 -15.405856843735807 414.4276024118541
68.67016861165817 -15.487805101778745 352.4537498739114
65.87893845800686 -14.85827368387248 273.78151109595433
58.549099619728764 -13.20510874122187 78.14568382569287
66.53273515714815 -15.005730375143331 272.0747937460358
68.68064729711367 -15.490168454619413 353.98450245274546
68.98405010836287 -15.558597638688166 408.2124065919221
65.70709425769641 -14.819516104910786 223.234392123668
68.55802474073153 -15.462512278834138 337.1348100459185
14.179057235314465 -3.1979312040051426 336.9887545636959
66.89281802024904 -15.08694312468142 251.02169065718263
67.52116477072713 -15.2286598585193 396.25208187385425
54.354899116463145 -12.25915271307063 66.24029318376694
65.25873715896792 -14.718394067474474 278.5678111190262
62.879956851757356 -14.181886199168877 106.63723234454321
67.83678401636209 -15.299844325684493 231.23317860986725
63.1017664869862 -14.231912935225818 268.2563415083357
65.84421220797175 -14.850441558171712 202.72617243706605
66.31584370719902 -14.95681288195861 316.0896210620704
68.14614184402487 -15.369616598542104 293.3432485985653
68.78554317714226 -15.51382657252866 216.79166916942705
69.55462239074492 -15.687283973448526 297.6494478707804
69.36442633428003 -15.644387334147789 241.75486502695094
55.23836152541096 -12.458407992053719 66.5155253514792
66.85849716876072 -15.079202432186777 194.4612446454179
63.754651860999196 -14.379164087086227 346.49564857459444
67.25050060237386 -15.167614517110618 348.1316808406432
39.69671706800884 -8.953160150321768 25.225347882019644
68.63575150473118 -15.480042699923189 211.311146845503
68.70629998405599 -15.495954137452761 357.8105295391195
45.549303418147325 -10.273146959221009 43.03481008359195
40.599948506162335 -9.156874117518083 2.848382322765437
66.83901947900668 -15.074809452398867 163.97393172922943
69.34166255994083 -15.639253213939925 349.25454530554873
69.04488354601351 -15.572317954875713 313.96371229297216
65.40296954308988 -14.75092410343927 395.08316275400813
68.26663188539239 -15.396791808901037 405.2819615846886
66.32879824594633 -14.959734636417036 317.62410441658807
66.74584049166123 -15.053793951421307 289.80664252173125
62.44347037154235 -14.08344144984313 117.16809893715723
67.17141017673018 -15.149776537059726 185.58262334095548
66.50942913002528 -15.000473955753753 341.3786951108827
65.40998980537249 -14.752507446777354 188.595322652085
63.89195056374455 -14.410130307088869 372.45060706185035
69.08157005002343 -15.580592194410272 317.80597008864595
64.1052056962245 -14.458227668659099 146.36223455412565
36.84926656563226 -8.310948847955993 20.488880940485156
69.1378102216358 -15.593276549705056 323.9501822615865
66.82000855030904 -15.070521745459656 296.73355243903615
62.71322596189049 -14.144281871424942 133.79839189844077
66.30294898923441 -14.953904619423133 255.84300319201094
68.66488162143428 -15.486612678987042 351.68829619032783
61.07398643667152 -13.774569334015888 269.4968694956232
40.91427437466588 -9.22776687762416 3.2142363190608902
68.96636778602678 -15.554609584375427 404.3999783006551
61.472963444091995 -13.864554232203107 316.3023055419739
69.26635224152358 -15.622267795709844 339.29353695437356
66.90198681849961 -15.089011046796559 416.1814269454003
70.25578787053442 -15.845424174858069 382.77902241166004
60.66518082752934 -13.682367702260565 90.36053848204868
68.96485277579866 -15.55426789039659 223.82708023351705
59.99827647161936 -13.531954722437074 120.08955145842754
41.67837029742118 -9.400100351823447 28.6792767401863
65.18595422806531 -14.701978673842188 167.0534019624817
69.31912811156408 -15.634170815693478 346.19058691265684
69.47566399374534 -15.669475771013579 369.1507596614124
68.91436227037761 -15.542880309395096 252.8146493085674
68.37430934821835 -15.421077282372549 431.18272136717604
68.51385781392972 -15.452550911793972 173.83220186221894
69.11976325636601 -15.589206254168756 265.21516445249233
66.92585605037908 -15.094394490856077 179.26554540166717
66.29103449921456 -14.951217436574375 255.068962240794
62.59829821198029 -14.118361175038403 132.19275455944398
68.67542373029958 -15.488990336283777 353.2191486075195
68.60150825919253 -15.472319510601285 236.49487517451584
64.51373017718764 -14.550365895029902 200.7833674239447
66.12401042906261 -14.913546985225285 398.7762528743699
66.76185495697533 -15.057405838833388 175.3107365815407
33.53245157425021 -7.56287752115191 7.283585789765342
68.99786285434325 -15.561712952397007 411.26173168899277
68.2970133178102 -15.403644008531725 412.14164010408854
66.84370080243578 -15.075865273672559 299.0411692665445
68.86700319156353 -15.532198987398928 219.92000653041347
66.65388028196206 -15.033053332405299 364.3194870132068
67.91622276523512 -15.317760866228207 161.90774630151557
65.59537384473755 -14.794318788277092 312.3975979990275
68.76954390426677 -15.51021811160486 367.75263652851146
68.76871149423653 -15.510030370631252 288.5598886159281
66.72669426791518 -15.049475730164406 190.52774798208097
65.39351125215762 -14.74879088941757 290.886066542418
63.68806719160569 -14.364146643512369 124.98305854433299
63.163880348069426 -14.245922036907455 367.23262194671696
69.06890249739008 -15.577735166529488 428.0237015359084
12.27378982749851 -2.768218988706824 21.040418138645247
67.61798046113829 -15.250495578078429 308.1156819205563
68.98753067165852 -15.559382641653167 408.9747899573116
61.41238812575406 -13.850892132002048 205.6773177458949
46.25760643757455 -10.432896954592769 38.16341928464389
68.14486567796455 -15.369328773251743 246.78571751655718
66.83161692756195 -15.073139887923494 399.42073927210004
65.14660275670109 -14.693103380082476 269.31518811287197
69.03739856223756 -15.570629798690057 313.1950582669364
64.71830128224298 -14.596504669240145 208.60494315889778
67.42511801815105 -15.206997564474715 192.67438358878496
69.59911342361556 -15.697318439065963 390.54332437123355
69.38512359408051 -15.649055374614438 355.37997700307983
66.91096628609019 -15.091036267453102 418.46578726905807
66.82796147103078 -15.072315439702999 297.50283322816125
62.49846919898958 -14.095845833544972 107.71960311451255
65.58799277149117 -14.79265406797433 194.09751572233074
69.51865738601613 -15.679172460181768 294.56698802197207
65.3173122076994 -14.731605028753902 236.64076432914067
67.14635971902747 -15.144126680441437 170.32762434114218
64.73793574665308 -14.600933007836213 187.2353951828843
68.8238247034403 -15.522460551886645 376.9232178982809
69.5398259778926 -15.683946804440566 379.85115762773415
66.01436440775512 -14.88881752492937 208.98878054380262
68.37140331013246 -15.420421857281822 430.4214448956249
68.27350900610978 -15.398342868225425 406.8065673351546
66.62247206438727 -15.02596955261813 358.9704030246382
66.11065658103789 -14.910535170928814 395.7277868577534
67.2951327716064 -15.177680814490088 278.856728996433
62.684480772642345 -14.137798708536458 105.01198431217279
67.949922119318 -15.325361386783838 348.76206495531915
65.57556553453156 -14.789851240664081 310.0953293609498
63.030483058174894 -14.215835737881807 193.35762969588802
69.70791584532515 -15.721857634703726 260.39200630429883
67.77605979091857 -15.286148641115192 325.77515046578475
68.20308012393016 -15.382458404523252 197.1814456167469
66.76273562240647 -15.057604463284632 291.346494576951
64.57218000249061 -14.563548613535296 277.955568423837
66.65826208907613 -15.034041601051618 365.0834607909525
66.74464592786342 -15.053524530628316 381.11728903416565
68.44238140596455 -15.436430190113498 264.61373300149836
65.82985280772449 -14.847202952574781 269.9233672873166
59.73353964173414 -13.472246227359506 84.65792198294405
67.41705023701286 -15.205177964721308 375.64940965782546
68.34497109649435 -15.414460360732267 258.4191322310814
67.95984891059288 -15.327600265931213 209.94830405424963
65.0139521911931 -14.663185496571126 177.56285196092205
64.29896801400746 -14.501928639176036 160.93739951694138
65.13849604154161 -14.69127499918661 227.3150648853422
70.16680880949222 -15.825355921300194 368.25391420285416
68.86630917602896 -15.532042459789427 384.5607178941253
69.0298633867545 -15.56893032231409 312.4263410648843
66.63609238648426 -15.029041467225692 361.26313743909503
62.48892349504598 -14.09369290447509 373.45203805403577
66.64947259146679 -15.03205922604558 363.55546460925916
66.58220127321673 -15.016886916335832 275.9333946632288
68.76484840475725 -15.50915909307135 366.98813877902677
68.25485526195985 -15.394135720352432 198.75417178660797
67.91770869693981 -15.318096001864282 344.16857948265425
66.29288332143226 -14.951634418194697 165.0031021187845
66.55237263664802 -15.010159393759903 232.3876354845233
69.05968137218534 -15.575655442642423 425.7388735737561
68.18197240754172 -15.377697790064643 387.7387638674585
64.60401935602752 -14.570729631320983 183.30039475880693
66.75357535330598 -15.055538464825965 191.3148143555223
68.20060383076257 -15.381899903696329 249.89042296260178
67.07196731128376 -15.127348286919462 168.74054290562142
64.34340743019963 -14.511951463216464 329.5381911669376
65.42811376535366 -14.756595107628286 149.0695204435443
69.77777606398477 -15.73761384257161 428.67061016856707
65.69012672530022 -14.815689263647347 222.45528411153987
65.61338203082704 -14.79838033759362 254.4672279125443
65.55534923403494 -14.785291675305487 307.79247903855736
67.16967163227231 -15.149384427381413 336.6475295311402
66.91826916330801 -15.09268335149729 252.57152792705833
69.36413078472347 -15.64432067617938 282.224050497968
68.71634850903835 -15.49822047230578 359.3405983690838
67.4768199492664 -15.218658369285437 387.09877720330303
68.7402860598455 -15.503619324951849 286.2462434578303
68.65956253806067 -15.485413017936601 350.9227921734272
66.4520738623577 -14.987538102745741 201.73715030531383
68.02550515277666 -15.342408312907304 360.2379327990564
62.944255364995165 -14.196388025238258 328.2769284375982
-0.19370173602971047 -71.48711742653163 418.76565778139565
-0.1876623250330906 -69.25822628723782 179.83202643583553
-0.14035344597947896 -51.79852013517533 45.66493473417578
-0.1916685624447863 -70.73675905704494 202.47259029205816
-0.11504174999665538 -42.457043801110686 3.590231574493154
-0.1411490458072639 -52.09214237872955 46.43783472222341
-0.17650939333152496 -65.14215095130163 107.99154181414484
-0.18684480061090722 -68.95651260327415 235.31284162533498
-0.18197426349133547 -67.15900337009049 303.1849852698177
-0.18278411963431043 -67.45788701655698 130.65518079020922
-0.19531224758170884 -72.08148911774266 393.4719780357597
-0.187678869493 -69.26433214758033 251.62010834977505
-0.18014486620013348 -66.48385021113337 306.40322717072047
-0.1335716860183765 -49.295659393527046 39.56684585979004
-0.18367814624289056 -67.78783442157254 244.9966431378733
-0.18644265177128708 -68.80809647696509 158.1626420458975
-0.09513335367665571 -35.10969681975243 8.9582374913307
-0.1884789746615504 -69.55961712184077 335.74225683424373
-0.11060493240777386 -40.81960210090917 2.149120852295178
-0.19478484033939913 -71.88684541327522 247.01324303505203
-0.1822729202017442 -67.26922492909571 315.4664043981957
-0.19538526184146365 -72.10843559260596 258.6630429157182
-0.18640660215020438 -68.7947920866775 169.53419135607945
-0.1710837015192592 -63.13975760339627 93.34509268091855
-0.1613958198857708 -59.56437027779534 73.81193502373155
-0.17396050330300455 -64.20146345664642 100.67339631282775
-0.1829702290210388 -67.52657211900329 131.4612031832405
-0.19213451670933035 -70.90872306680343 327.7882651507947
-0.1782976668065605 -65.80212704919788 172.2558812285583
-0.17955719799347158 -66.26696673368724 155.93208473633453
-0.19548590739730937 -72.14557961008704 310.582655963207
-0.1669288978326572 -61.606395305689524 81.66838193874004
-0.19420221889303546 -71.67182448158349 236.89493643028828
-0.18882946795816546 -69.68896937219175 210.73154750470144
-0.09369962489880974 -34.58056817279002 17.170288180938382
-0.19343235529984534 -71.38770039360756 398.1758593899213
-0.19048518903036635 -70.30002598500317 273.8936718392675
-0.19176954506577623 -70.77402747101328 226.9501333155782
-0.15867474011923802 -58.56013483425109 65.99927432748632
-0.18587601874681323 -68.59897619550257 165.56370564414854
-0.19357175972316648 -71.43914866962201 309.9671094327233
-0.19288465347369857 -71.18556681668146 245.64315518405704
-0.03532757788780879 -13.037914685872337 436.4069528558003
-0.19762075122645995 -72.93346016619309 419.2906870727773
-0.17711944625198583 -65.36729567976549 119.8748251395809
-0.19676956837382978 -72.61932457926117 291.9301929151597
-0.15411995547223786 -56.87915648275752 58.53062625292699
-0.1945844242013542 -71.81288029407571 216.38704039679976
-0.17435633016301233 -64.3475464076924 184.7265293611856
-0.1056127130721042 -38.97718510876987 22.5595845394912
-0.18835219481900758 -69.51282804458758 267.1052827808104
-0.11494816270641299 -42.422504690907964 26.77915231019069
-0.18365334212893883 -67.77868027229607 127.97454801437787
-0.11663490138524607 -43.045008590321224 4.39191058499892
-0.03667983092712015 -13.536974084063834 17.7790845815672
-0.1816185351705625 -67.02771909375784 125.81388127148382
-0.194869110278133 -71.9179458831485 248.56806054182684
-0.17670875317949736 -65.21572623851513 130.8800766632914
-0.19007076840499476 -70.14708086165452 204.25317195263392
-0.19360525184953134 -71.45150919678808 227.53538211393848
-0.19614853246485778 -72.39012649430458 275.7055282577806
-0.03329076475537274 -12.286213113347328 422.8809692604033
-0.1900202213254653 -70.12842607267866 319.49014334100855
-0.1682470770601577 -62.0928795012214 288.85539637364207
-0.18037597826969826 -66.56914390025722 316.37592204337324
-0.16389147096608989 -60.4854095286106 88.73879927349272
-0.19312059325082015 -71.2726422084585 377.5589298104281
-0.170043320049284 -62.755796809668034 90.90111155997089
-0.18948470814636997 -69.93079080981467 156.88078105459837
-0.14782265201704572 -54.55508814553429 53.478590567257456
-0.19118732753196396 -70.55915560635928 168.03833092790177
-0.1860584848295099 -68.666316708538 198.3902084804306
-0.1797508106618674 -66.33842098001756 239.92403308287535
-0.09823513124406334 -36.25443171855706 18.748918966403107
-0.18812842709054078 -69.43024484110651 261.6901611465303
-0.12893895407443745 -47.585913991806855 35.84664213667022
-0.13175606400797846 -48.62559010803746 38.069345607545635
-0.19060963263845998 -70.345952856941 176.21117089536594
-0.19687215345053338 -72.65718439185157 370.4157176573107
-0.1696151031509505 -62.597760065534274 96.33564201246838
-0.09802751734174212 -36.177810209019626 19.898683194935376
-0.10320595613922351 -38.08895292766247 21.26286875122798
-0.19493970144095643 -71.94399809542841 221.0842425221063
-0.16383274507716192 -60.463736287039204 75.97702508302676
-0.1957044013571134 -72.2262164886285 422.45865963889355
-0.1412304051806214 -52.122168682035706 47.4471520678158
-0.14565956376407327 -53.75678376729952 49.07513204058648
-0.19796913250088757 -73.06203295849058 331.95546629924985
-0.19374572901856782 -71.50335337787027 206.19021301899568
-0.1902051042854737 -70.19665855289895 173.0387820631363
-0.19687763542104497 -72.65920755528688 295.01627019551125
-0.1831541023241339 -67.59443197756414 132.26698414115447
-0.19130961500061447 -70.60428673843064 386.0877282025666
-0.1685658599336213 -62.210528775698556 84.92482492868082
-0.19297937506834142 -71.22052455065874 369.1507596614124
-0.18348614752061965 -67.71697581448902 289.19270310757474
-0.18819360175145258 -69.45429805164213 263.23783520202676
-0.10679591492818875 -39.413854865886734 23.217241411299533
-0.1727252591829272 -63.74558710121273 97.41729954335106
-0.09533170685063061 -35.182900586174505 17.653235707592163
-0.1946558485455294 -71.83923999835002 244.68011780532757
-0.12133409906049115 -44.77928368204887 29.902265355827325
-0.19377452883043345 -71.51398217023372 424.86164110566625
-0.1810462147815506 -66.81649984661276 145.0709626988159
-0.13082961407444904 -48.283676625249356 37.32519469520535
-0.19572296296350478 -72.23306679241475 423.98290559734073
-0.10971862890768104 -40.492504968558414 1.8122259588288017
-0.19768573579067011 -72.95744322007697 321.19812043611694
-0.18487683795242263 -68.23022082839537 140.3111399412061
-0.13819156455614032 -51.00066114671101 45.35336623559356
-0.19600596411333027 -72.33751054621938 329.79899669643504
-0.19434226766630625 -71.72351055990914 239.23182898104776
-0.14488818090240305 -53.47209898159076 48.297789025451046
-0.18187005656992777 -67.12054500322182 149.86848792379368
-0.19196384955911738 -70.84573704066759 320.8785898624667
-0.09141886926364089 -33.738837740970176 15.87802318868858
-0.19194426136565979 -70.83850786701856 320.11053094528177
-0.19206984333175953 -70.88485485874531 231.6305080289199
-0.19444593018307965 -71.76176801005495 279.74041844785035
-0.17050338484109534 -62.92558726415826 123.6012524282546
-0.19568564885935988 -72.21929573491497 420.9342893098428
-0.1964560480278523 -72.5036174810808 283.4364743111178
-0.17706429718236028 -65.34694249090361 161.96283011227345
-0.18835736302230954 -69.51473540981776 171.68322901978766
-0.18552738348121686 -68.4703096658082 214.2626211659993
-0.18383096151610942 -67.844232075022 142.97074453432276
-0.17372138916675617 -64.11321654318712 112.85490356306
-0.13207662776862564 -48.743896632644756 39.02809992719435
-0.19309557355259202 -71.26340849614456 376.0305666295964
-0.19326492790160585 -71.32591002288765 386.7256013298611
-0.11577326154321066 -42.72701377091746 3.9832814659454847
-0.16189926096419852 -59.750169084912805 70.84360218068801
-0.19254457250608265 -71.06005731653553 346.19058691265684
-0.11979191168549268 -44.210127554540954 29.37725811129969
-0.18905095327718993 -69.77071023489071 177.23193382220907
-0.14569578420791535 -53.77015120104199 50.09241505212404
-0.19261235107637192 -71.08507151988024 280.6796394396733
-0.13769157509318442 -50.816136184865165 42.37490716154465
-0.19226058489746095 -70.9552495025152 333.15902799561013
-0.1754466950651888 -64.74995397200925 109.07374002741045
-0.17448032493585136 -64.39330763352294 121.20862895369802
-0.18791624675747753 -69.35193805513653 427.4888310694887
-0.1887668957589962 -69.66587662020441 162.7042835887586
-0.037353946475133695 -13.785761618588065 353.5822842865575
-0.1932879563567356 -71.33440885160108 253.41079779645983
-0.18552571988128677 -68.4696957014422 136.03586470588272
-0.13408373068258664 -49.484633420235845 41.51448100323577
-0.18289245749282187 -67.49786993757715 202.72617243706605
-0.14716618123851732 -54.31281254907527 51.659401810744626
-0.19349559615272263 -71.41103991739531 402.7535890932042
-0.18885788824215985 -69.6994580968715 175.6476524864063
-0.19181613425755972 -70.79122157103582 186.49842780121625
-0.19582844598140514 -72.27199611252156 322.88586849688585
-0.19754062936427283 -72.90389057591473 413.1897886094238
-0.14712283016984656 -54.29681350332506 52.68961029278656
-0.18271522696504777 -67.4324616464062 137.35125547665956
-0.08787441983210632 -32.43073138158448 13.09998632423625
-0.16885860495191898 -62.318568579202775 83.02311985494055
-0.18782991581300504 -69.3200769552231 167.7133578636252
-0.1551531981094038 -57.2604826352596 64.10882964573219
-0.19666946220726772 -72.5823796275492 359.70104536186363
-0.1819968024542166 -67.16732154791987 141.6175749109029
-0.1449398625209139 -53.491172480915054 51.358921647499116
-0.19610025729242797 -72.37231017014038 333.6374422016172
-0.11299211003236895 -41.7006083875087 3.030492781886567
-0.18202072457681195 -67.17615019149385 215.43689188590415
-0.16429405543110145 -60.63398642582522 76.7892901072556
-0.1939608435347379 -71.5827430467127 232.9974992481807
-0.18724798865037523 -69.1053122542902 153.13035493857993
-0.18832096264477607 -69.50130157016076 266.3319891385523
-0.1849883586566763 -68.27137840314859 234.72072049289855
-0.12296758212853666 -45.38213318816641 32.59057454404677
-0.18971734454186845 -70.01664706316355 307.96479663101036
-0.19508381281439358 -71.99718350763257 378.95815623671604
-0.18753089004906467 -69.20971919416986 248.51794022164478
-0.15943425199830108 -58.840438542407306 70.56914379438756
-0.14544210145823774 -53.676527628600155 58.18084475352979
-0.10713096078057571 -39.53750611798075 24.19336913281335
-0.18283852976312953 -67.47796749362348 124.74327382393625
-0.13806517896242357 -50.95401757002327 44.352473955125944
-0.19197145730638698 -70.84854473838658 230.07093542681736
-0.17967387689868763 -66.31002798223021 109.07520520909824
-0.18852738107418313 -69.57748188121259 161.11097315363924
-0.15923147791221104 -58.765603204322616 66.80507409566223
-0.19542323929386635 -72.1224514638889 401.10509039952524
-0.1955083986255851 -72.15388017109268 311.3521267452473
-0.16624958684074442 -61.35569035258288 78.14308822846908
-0.1936076144716725 -71.45238114068441 204.61899049346152
-0.191640610497408 -70.72644317560012 184.9179987088166
-0.1857097904497533 -68.53762836230756 194.4612446454179
-0.15392266692310275 -56.80634562433151 59.581993074336566
-0.113932424540155 -42.04763869820071 3.402462341535776
-0.19044699911547425 -70.28593170280232 337.90126476068
-0.18281265806694413 -67.46841934490195 167.61627044231227
-0.19184953225927426 -70.8035473607748 428.0237015359084
-0.10912150981615452 -40.27213356926939 24.550295905065852
-0.13620354266865936 -50.26696635889007 41.834562148265796
-0.19812009435220523 -73.11774659231374 338.0970223552886
-0.19723198934223116 -72.78998459886745 391.8184829217613
-0.1931153142080423 -71.27069393706613 220.50245203444882
-0.18924009361116598 -69.84051393176085 178.8153712570499
-0.14772025070328776 -54.517296152074174 54.517496283353196
-0.19983274676568097 -73.74981415506494 330.2708513208033
-0.1749090291144793 -64.55152421220203 99.58646578609786
-0.1864135834631294 -68.7973685939773 184.00455551053642
-0.09240100128842636 -34.101301128357825 16.574627400080136
-0.1511746742351803 -55.79217775988537 57.444053857885656
-0.1974030604438955 -72.85311970639734 403.27103076088065
-0.19450572356495796 -71.7838352181207 195.74764288668527
-0.18214865030742472 -67.22336216756403 142.4193312047634
-0.16180393139323634 -59.714986972592705 68.96101416130557
-0.12093308081833318 -44.63128481144023 31.152783783884367
-0.16815261309768195 -62.05801684837949 89.54583637333232
-0.1665051016119648 -61.44999004668393 80.85465398455041
-0.09073145948496725 -33.485143868238694 15.097620707918592
-0.17427852491238258 -64.3188317807501 97.95808612561858
-0.19456808589611538 -71.806850516702 243.12408596314867
-0.19356685756239017 -71.43733948943478 408.0926322107735
-0.1678280536982691 -61.93823570251432 86.01309174496346
-0.11225673059933419 -41.42921094440913 25.581289407921673
-0.16289020138059956 -60.11588327706176 74.3534734511992
-0.19176260870390477 -70.771467553246 420.4065296690154
-0.19064067107619365 -70.35740783142127 238.05146225029856
-0.1112166586356229 -41.04536437635117 2.4948921597587552
-0.16338556468176324 -60.29870091827098 71.38564190865173
-0.0870819781736029 -32.138274684725445 12.424989763172134
-0.15066470833220721 -55.60397091602015 55.60417503644805
-0.18606649563747404 -68.66927315891037 155.76972874111138
-0.1805750688086205 -66.64261979689174 195.87595961794077
-0.19663912296080197 -72.57118269499101 358.16959420166955
-0.19184436273445143 -70.80163950782716 316.269264910604
-0.1915040307670612 -70.6760373742815 399.8239094360431
-0.10363002994965484 -38.24546063329899 22.19928108268596
-0.1905439140366245 -70.32169890081848 342.49885958756306
-0.19365736451004975 -71.47074177548483 228.3161018430415
-0.19535736687108424 -72.0981407389614 396.5256806459658
-0.19550783784927486 -72.15367321227671 407.2089050285591
-0.1811655041494228 -66.86052450650278 275.48498788237237
-0.18534839932037192 -68.40425418284728 135.2308307572195
-0.18596783852031054 -68.63286299003843 145.92728580781474
-0.18618557051573315 -68.71321865975686 319.0143196914705
-0.19753037783628222 -72.90010717056026 412.42702003319675
-0.0925855259177501 -34.16940136387936 7.752931779850897
-0.11460787640569217 -42.29691941099835 3.7893621298960936
-0.18780235714097113 -69.30990621507286 147.280501393758
-0.18974398872240625 -70.02648030318441 158.4774934617584
-0.10973173554594547 -40.49734207434735 1.9801143345377248
-0.197488830834217 -72.8847739294844 409.37559872670647
-0.12989060684987216 -47.9371287774934 36.584254984637646
-0.1609159882354476 -59.38728471194187 73.00061959675621
-0.19709731949323955 -72.74028365397143 383.41425816201087
-0.19624507905723335 -72.42575775774988 339.77584356786116
-0.18501567906222757 -68.28146120921846 356.6772644733553
-0.1703949105471881 -62.88555399060455 91.71580397624852
