ply
format ascii 1.0
element vertex 949
property float32 x
property float32 y
property float32 z
element face 0
property list uint8 int32 vertex_indices
end_header
-5.577528867330062 3.2708014697717185 239.209485
-5.577528867330062 3.2708014697717185 239.05307100000002
-5.307679311568357 3.1125549873962473 238.896657
-5.577528867330062 3.2708014697717185 238.740244
-5.442604520757178 3.191678481513689 238.58383
-5.442604520757179 3.1916784815136894 238.427416
-5.577528867330063 3.270801469771719 238.271002
-5.712454076518884 3.3499249638891606 238.11458899999997
-5.712454076518883 3.34992496388916 237.958175
-5.577528867330062 3.2708014697717185 237.801761
-5.712454076518884 3.3499249638891606 237.64534700000002
-5.847379285707705 3.4290484580066027 237.488934
-5.847379285707706 3.429048458006603 237.33252000000002
-5.577528867330062 3.2708014697717185 237.17610600000003
-5.712454076518883 3.34992496388916 237.019692
-5.9823044948965265 3.508171952124045 236.86327899999998
-5.982304494896526 3.5081719521240444 236.706865
-5.847379285707705 3.4290484580066027 236.550451
-5.712454076518883 3.34992496388916 236.394038
-5.712454076518885 3.349924963889161 236.23762400000004
-5.712454076518883 3.34992496388916 236.08121
-5.577528867330063 3.270801469771719 235.924796
-5.712454076518883 3.34992496388916 235.76838299999997
-5.982304494896526 3.5081719521240444 235.611969
-5.847379285707706 3.429048458006603 235.45555500000003
-5.847379285707705 3.4290484580066027 235.29914100000002
-5.577528867330062 3.2708014697717185 235.142728
-5.982304494896526 3.5081719521240444 234.986314
-6.1172288414694105 3.5872949403820744 234.8299
-6.11722884146941 3.587294940382074 234.673486
-5.9823044948965265 3.508171952124045 234.51707299999998
-5.982304494896526 3.5081719521240444 234.360659
-6.1172288414694105 3.5872949403820744 234.204245
-6.1172288414694105 3.5872949403820744 234.047831
-6.252154050658231 3.666418434499516 233.891418
-5.982304494896526 3.5081719521240444 233.735004
-6.2521540506582305 3.6664184344995157 233.57859000000002
-6.252154050658231 3.666418434499516 233.42217600000004
-6.252154050658232 3.6664184344995165 233.26576300000002
-6.2521540506582305 3.6664184344995157 233.109349
-6.252154050658231 3.666418434499516 232.952935
-6.2521540506582305 3.6664184344995157 232.79652100000004
-6.2521540506582305 3.6664184344995157 232.640108
-6.387079259847052 3.745541928616958 232.483694
-6.387079259847053 3.7455419286169582 232.32728
-6.387079259847054 3.745541928616959 232.170866
-6.387079259847051 3.7455419286169573 232.014453
-6.25215405065823 3.666418434499515 231.858039
-6.387079259847053 3.7455419286169582 231.701625
-6.25215405065823 3.666418434499515 231.545211
-6.522004469035874 3.8246654227344004 231.388798
-5.577528867330062 3.2708014697717185 231.232384
-6.387079259847052 3.745541928616958 231.07597
-6.522004469035873 3.8246654227344 230.919556
-6.522004469035872 3.8246654227343995 230.76314300000004
-6.522004469035873 3.8246654227344 230.60672900000003
-6.117228841469409 3.5872949403820735 230.450315
-6.656928815608758 3.90378841099243 230.29390099999998
-6.791854024797578 3.982911905109871 230.13748800000002
-6.656928815608757 3.9037884109924295 229.981074
-6.926779233986399 4.062035399227313 229.82465999999997
-6.656928815608756 3.903788410992429 229.66824599999998
-6.79185402479758 3.9829119051098725 229.51183300000002
-6.926779233986399 4.062035399227313 229.355419
-6.926779233986399 4.062035399227313 229.199005
-6.926779233986399 4.062035399227313 229.042591
-7.06170444317522 4.1411588933447545 228.886178
-6.926779233986399 4.062035399227313 228.729764
-6.791854024797577 3.9829119051098707 228.57334999999998
-6.387079259847053 3.7455419286169582 228.41693600000002
-6.926779233986399 4.062035399227313 228.26052299999998
-6.791854024797578 3.982911905109871 228.104109
-7.196628789748104 4.2202818816027845 227.947695
-7.196628789748104 4.2202818816027845 227.79128100000003
-7.331553998936926 4.299405375720227 227.634868
-7.196628789748104 4.2202818816027845 227.478454
-7.196628789748106 4.220281881602785 227.32204000000002
-7.196628789748104 4.2202818816027845 227.165627
-7.331553998936926 4.299405375720227 227.009213
-7.196628789748104 4.2202818816027845 226.852799
-7.06170444317522 4.1411588933447545 226.696385
-7.331553998936924 4.299405375720226 226.539972
-7.3315539989369265 4.2994053757202275 226.38355800000002
-6.926779233986401 4.062035399227314 226.227144
-7.4664792081257465 4.378528869837669 226.07073
-7.4664792081257465 4.378528869837669 225.914317
-7.601404417314568 4.457652363955111 225.757903
-7.601404417314568 4.457652363955111 225.601489
-7.4664792081257465 4.378528869837669 225.445075
-7.4664792081257465 4.378528869837669 225.288662
-7.601404417314567 4.45765236395511 225.132248
-7.4664792081257465 4.378528869837669 224.975834
-7.601404417314567 4.45765236395511 224.81942
-7.4664792081257465 4.378528869837669 224.66300700000002
-7.601404417314567 4.45765236395511 224.506593
-7.736328763887451 4.53677535221314 224.350179
-7.601404417314567 4.45765236395511 224.193765
-7.736328763887451 4.53677535221314 224.037352
-7.736328763887453 4.536775352213141 223.880938
-7.871253973076272 4.615898846330582 223.724524
-7.871253973076272 4.615898846330582 223.56810999999996
-7.871253973076274 4.615898846330583 223.41169700000003
-8.006179182265093 4.695022340448023 223.255283
-7.871253973076274 4.615898846330583 223.09886900000004
-7.871253973076272 4.615898846330582 222.942455
-7.601404417314566 4.457652363955109 222.786042
-7.736328763887451 4.53677535221314 222.629628
-7.7363287638874505 4.536775352213139 222.473214
-8.141104391453913 4.774145834565465 222.31679999999997
-8.141104391453915 4.7741458345654655 222.160387
-8.006179182265093 4.695022340448023 222.003973
-8.006179182265093 4.695022340448023 221.847559
-8.141104391453913 4.774145834565465 221.691145
-8.141104391453917 4.774145834565466 221.534732
-8.141104391453915 4.7741458345654655 221.378318
-8.141104391453915 4.7741458345654655 221.221904
-8.141104391453915 4.7741458345654655 221.06549
-8.141104391453913 4.774145834565465 220.909077
-8.276028738026799 4.8532688228234955 220.752663
-8.41095394721562 4.9323923169409385 220.596249
-8.41095394721562 4.9323923169409385 220.439835
-8.141104391453917 4.774145834565466 220.283422
-8.276028738026799 4.8532688228234955 220.127008
-8.141104391453915 4.7741458345654655 219.970594
-8.276028738026799 4.8532688228234955 219.81418
-8.006179182265093 4.695022340448023 219.65776699999998
-8.41095394721562 4.9323923169409385 219.50135300000002
-8.41095394721562 4.932392316940938 219.344939
-8.276028738026799 4.8532688228234955 219.188525
-8.276028738026799 4.8532688228234955 219.032112
-8.54587915640444 5.011515811058379 218.875698
-8.680804365593263 5.090639305175821 218.719284
-8.141104391453915 4.7741458345654655 218.562871
-8.54587915640444 5.011515811058379 218.40645699999996
-8.545879156404439 5.011515811058378 218.250043
-8.54587915640444 5.011515811058379 218.093629
-8.54587915640444 5.011515811058379 217.937216
-8.41095394721562 4.932392316940938 217.780802
-8.54587915640444 5.011515811058379 217.62438799999998
-8.54587915640444 5.011515811058379 217.467974
-8.680804365593263 5.090639305175821 217.311561
-8.680804365593263 5.090639305175822 217.155147
-8.815728712166147 5.169762293433851 216.99873299999996
-8.680804365593263 5.090639305175822 216.84231900000003
-8.815728712166147 5.169762293433851 216.685906
-8.545879156404439 5.011515811058378 216.529492
-8.54587915640444 5.011515811058379 216.373078
-8.276028738026799 4.8532688228234955 216.216664
-8.950653921354968 5.248885787551294 216.060251
-8.680804365593263 5.090639305175821 215.903837
-8.950653921354967 5.248885787551293 215.74742300000003
-8.815728712166145 5.16976229343385 215.591009
-8.950653921354968 5.248885787551294 215.434596
-9.085579130543788 5.328009281668734 215.278182
-9.22050433973261 5.4071327757861765 215.121768
-8.950653921354967 5.248885787551293 214.965354
-9.085579130543788 5.328009281668734 214.80894099999998
-8.950653921354967 5.248885787551293 214.652527
-9.085579130543788 5.328009281668734 214.49611299999998
-9.355428686305492 5.486255764044206 214.339699
-9.22050433973261 5.4071327757861765 214.183286
-9.085579130543788 5.328009281668734 214.026872
-9.355428686305494 5.4862557640442065 213.870458
-9.355428686305494 5.4862557640442065 213.71404399999997
-9.355428686305494 5.4862557640442065 213.55763100000001
-9.355428686305494 5.4862557640442065 213.401217
-9.355428686305496 5.486255764044207 213.24480300000002
-9.355428686305494 5.4862557640442065 213.088389
-9.220504339732608 5.407132775786176 212.93197599999996
-9.085579130543788 5.328009281668734 212.77556199999998
-9.355428686305496 5.486255764044207 212.619148
-9.490353895494316 5.565379258161649 212.462734
-9.085579130543787 5.328009281668733 212.306321
-9.490353895494316 5.565379258161649 212.149907
-9.355428686305494 5.4862557640442065 211.993493
-9.625279104683136 5.64450275227909 211.837079
-9.355428686305494 5.4862557640442065 211.680666
-9.760204313871956 5.723626246396532 211.524252
-9.490353895494312 5.565379258161647 211.367838
-9.760204313871958 5.723626246396533 211.21142400000002
-9.625279104683138 5.644502752279091 211.055011
-9.760204313871956 5.723626246396532 210.89859700000002
-9.490353895494314 5.565379258161648 210.742183
-9.625279104683136 5.64450275227909 210.585769
-9.760204313871956 5.723626246396532 210.429356
-9.760204313871956 5.723626246396532 210.272942
-9.355428686305494 5.4862557640442065 210.116528
-9.760204313871958 5.723626246396533 209.960114
-9.895128660444842 5.802749234654562 209.80370099999996
-9.89512866044484 5.802749234654561 209.647287
-9.89512866044484 5.802749234654561 209.490873
-9.625279104683136 5.64450275227909 209.33446
-9.625279104683134 5.644502752279089 209.178046
-10.030053869633663 5.881872728772004 209.021632
-10.030053869633663 5.881872728772004 208.865218
-9.760204313871958 5.723626246396533 208.708805
-9.760204313871956 5.723626246396532 208.552391
-9.625279104683136 5.64450275227909 208.395977
-10.030053869633663 5.881872728772004 208.23956300000003
-9.760204313871956 5.723626246396532 208.08315000000002
-9.895128660444842 5.802749234654562 207.926736
-9.355428686305494 5.4862557640442065 207.770322
-10.030053869633662 5.881872728772003 207.61390799999998
-10.164979078822483 5.960996222889445 207.45749500000002
-10.164979078822485 5.960996222889446 207.30108100000004
-9.895128660444842 5.802749234654562 207.144667
-9.89512866044484 5.802749234654561 206.988253
-9.895128660444842 5.802749234654562 206.83184
-10.030053869633662 5.881872728772003 206.675426
-10.030053869633663 5.881872728772004 206.519012
-10.030053869633662 5.881872728772003 206.362598
-10.299904288011303 6.040119717006887 206.20618499999998
-10.164979078822485 5.960996222889446 206.04977100000002
-10.03005386963366 5.881872728772002 205.893357
-10.164979078822483 5.960996222889445 205.736943
-9.895128660444842 5.802749234654562 205.58053
-9.895128660444842 5.802749234654562 205.42411599999997
-9.895128660444843 5.802749234654563 205.26770200000004
-9.89512866044484 5.802749234654561 205.111288
-10.299904288011302 6.0401197170068865 204.95487499999996
-10.299904288011303 6.040119717006887 204.798461
-10.164979078822483 5.960996222889445 204.64204700000002
-9.895128660444842 5.802749234654562 204.485633
-10.164979078822483 5.960996222889445 204.32922
-10.299904288011303 6.040119717006887 204.172806
-10.164979078822483 5.960996222889445 204.016392
-10.164979078822483 5.960996222889445 203.859978
-9.760204313871958 5.723626246396533 203.703565
-9.895128660444843 5.802749234654563 203.547151
-9.625279104683136 5.64450275227909 203.39073700000003
-10.164979078822485 5.960996222889446 203.23432300000002
-9.760204313871956 5.723626246396532 203.07791
-9.895128660444842 5.802749234654562 202.921496
-9.895128660444842 5.802749234654562 202.765082
-10.030053869633662 5.881872728772003 202.608668
-10.164979078822483 5.960996222889445 202.45225500000004
-10.164979078822483 5.960996222889445 202.295841
-10.164979078822483 5.960996222889445 202.139427
-10.299904288011303 6.040119717006887 201.983013
-10.43482863458419 6.119242705264917 201.82659999999998
-10.299904288011305 6.040119717006888 201.670186
-10.434828634584187 6.1192427052649165 201.513772
-10.43482863458419 6.119242705264917 201.357358
-10.434828634584187 6.1192427052649165 201.200945
-10.299904288011303 6.040119717006887 201.044531
-9.760204313871956 5.723626246396532 200.888117
-10.164979078822483 5.960996222889445 200.731704
-10.030053869633662 5.881872728772003 200.57529
-10.299904288011305 6.040119717006888 200.418876
-10.03005386963366 5.881872728772002 200.262462
-10.56975384377301 6.198366199382359 200.106049
-10.43482863458419 6.119242705264917 199.949635
-10.569753843773011 6.1983661993823596 199.79322100000002
-10.299904288011307 6.040119717006889 199.63680700000003
-10.299904288011303 6.040119717006887 199.480394
-10.299904288011305 6.040119717006888 199.32398000000003
-10.43482863458419 6.119242705264917 199.167566
-10.56975384377301 6.198366199382359 199.011152
-10.299904288011303 6.040119717006887 198.85473899999997
-10.704679052961831 6.277489693499801 198.698325
-10.704679052961831 6.277489693499801 198.541911
-10.569753843773007 6.198366199382358 198.38549699999996
-10.299904288011303 6.040119717006887 198.229084
-10.299904288011303 6.040119717006887 198.07267
-10.569753843773007 6.198366199382358 197.916256
-10.43482863458419 6.119242705264917 197.759842
-9.895128660444842 5.802749234654562 197.603429
-10.43482863458419 6.119242705264917 197.447015
-10.164979078822482 5.960996222889444 197.290601
-10.299904288011303 6.040119717006887 197.134187
-10.569753843773011 6.1983661993823596 196.977774
-10.434828634584187 6.1192427052649165 196.82136
-10.56975384377301 6.198366199382359 196.66494599999996
-10.704679052961831 6.277489693499801 196.508532
-10.56975384377301 6.198366199382359 196.352119
-10.56975384377301 6.198366199382359 196.195705
-10.56975384377301 6.198366199382359 196.039291
-10.704679052961827 6.277489693499799 195.88287699999998
-10.569753843773013 6.19836619938236 195.72646400000002
-10.704679052961833 6.277489693499802 195.57005
-10.70467905296183 6.2774896934998 195.41363599999997
-10.43482863458419 6.119242705264917 195.257222
-10.704679052961833 6.277489693499802 195.100809
-10.70467905296183 6.2774896934998 194.944395
-10.43482863458419 6.119242705264917 194.787981
-10.569753843773011 6.1983661993823596 194.63156700000002
-10.704679052961831 6.277489693499801 194.475154
-10.704679052961831 6.277489693499801 194.31874
-10.70467905296183 6.2774896934998 194.162326
-10.704679052961831 6.277489693499801 194.005912
-10.43482863458419 6.119242705264918 193.84949900000004
-10.164979078822483 5.960996222889445 193.69308500000002
-10.704679052961831 6.277489693499801 193.536671
-10.43482863458419 6.119242705264918 193.380257
-10.569753843773007 6.198366199382358 193.223844
-10.56975384377301 6.198366199382359 193.06743
-10.704679052961833 6.277489693499803 192.911016
-10.43482863458419 6.119242705264917 192.754602
-10.434828634584191 6.119242705264919 192.598189
-10.43482863458419 6.119242705264917 192.441775
-10.299904288011305 6.040119717006888 192.285361
-10.299904288011303 6.040119717006887 192.128947
-10.43482863458419 6.119242705264918 191.972534
-10.43482863458419 6.119242705264918 191.81612
-10.299904288011303 6.040119717006887 191.659706
-10.299904288011305 6.040119717006888 191.503293
-10.299904288011303 6.040119717006887 191.346879
-10.164979078822483 5.960996222889445 191.190465
-10.299904288011302 6.0401197170068865 191.034051
-10.299904288011302 6.0401197170068865 190.877638
-10.164979078822483 5.960996222889445 190.72122400000003
-10.164979078822483 5.960996222889445 190.56481
-10.03005386963366 5.881872728772002 190.408396
-10.164979078822483 5.960996222889445 190.251983
-10.030053869633662 5.881872728772003 190.095569
-10.030053869633662 5.881872728772003 189.939155
-9.760204313871956 5.723626246396532 189.78274099999996
-9.895128660444842 5.802749234654562 189.62632800000003
-10.030053869633662 5.881872728772003 189.469914
-10.030053869633663 5.881872728772004 189.31350000000003
-9.760204313871958 5.723626246396533 189.15708600000002
-2.0694794667322736 1.213594163734115 189.00067300000003
-2.2044046759210945 1.292717657851557 188.844259
-9.490353895494314 5.565379258161648 188.687845
-2.2044046759210945 1.292717657851557 188.531431
-2.0694794667322736 1.213594163734115 188.375018
-2.2044046759210945 1.292717657851557 188.218604
-9.490353895494314 5.565379258161648 188.06219
-1.9345542575434522 1.1344706696166729 187.905776
-2.2044046759210945 1.292717657851557 187.749363
-2.4742542316828 1.4509641402270284 187.592949
-2.4742542316828 1.4509641402270284 187.43653499999996
-2.204404675921095 1.2927176578515571 187.28012100000004
-2.4742542316828 1.4509641402270284 187.123708
-2.3393298851099154 1.3718411519689986 186.96729400000004
-2.4742542316827993 1.4509641402270281 186.81088
-2.3393298851099154 1.3718411519689986 186.654466
-2.0694794667322736 1.213594163734115 186.498053
-2.069479466732274 1.2135941637341152 186.341639
-1.9345542575434522 1.1344706696166729 186.185225
-1.6647047017817471 0.9762241872412014 186.028811
-1.7996299109705685 1.0553476813586435 185.872398
-1.9345542575434527 1.134470669616673 185.71598400000002
-1.9345542575434522 1.1344706696166729 185.55957
-2.339329885109916 1.3718411519689988 185.40315600000002
-2.069479466732273 1.2135941637341148 185.246743
-2.2044046759210945 1.292717657851557 185.09032900000003
-1.9345542575434518 1.1344706696166726 184.93391500000004
-1.529779492592926 0.8971006931237595 184.777501
-1.7996299109705685 1.0553476813586435 184.621088
-1.9345542575434522 1.1344706696166729 184.464674
-1.9345542575434522 1.1344706696166729 184.30826
-1.3948542834041049 0.8179771990063176 184.151846
-1.664704701781747 0.9762241872412013 183.68260499999997
-1.664704701781747 0.9762241872412013 183.526191
-1.529779492592926 0.8971006931237595 183.36977799999997
-1.3948542834041049 0.8179771990063176 183.05695
-1.5297794925929262 0.8971006931237596 182.900536
-1.394854283404105 0.8179771990063177 182.744123
-1.394854283404105 0.8179771990063177 182.587709
-1.9345542575434522 1.1344706696166729 182.431295
-1.799629910970569 1.0553476813586438 182.274882
-1.9345542575434522 1.1344706696166729 182.118468
-1.9345542575434522 1.1344706696166729 181.962054
-1.799629910970569 1.0553476813586438 181.80564
-1.9345542575434527 1.134470669616673 181.649227
-2.354180101794105 0.9941604329587322 294.11071
-2.3541801017941055 0.9941604329587325 293.954296
-2.354180101794105 0.9941604329587322 293.797882
-2.354180101794106 0.9941604329587326 276.748784
-2.3541801017941055 0.9941604329587325 276.59237
-2.0659950455997325 0.8724610863284159 276.4359559999999
-2.210087573696919 0.933310759643574 276.279543
-2.354180101794106 0.9941604329587326 276.123129
-2.2100875736969194 0.9333107596435742 275.966715
-1.9219034387278078 0.8116118020428414 275.810301
-2.354180101794105 0.9941604329587322 275.65388799999994
-2.3541801017941064 0.9941604329587328 275.497474
-2.3541801017941055 0.9941604329587325 275.34106
-2.3541801017941055 0.9941604329587325 275.184646
-2.354180101794105 0.9941604329587322 275.02823299999994
-2.354180101794105 0.9941604329587322 274.871819
-2.354180101794105 0.9941604329587322 274.7154049999999
-2.3541801017941055 0.9941604329587325 274.558991
-2.3541801017941055 0.9941604329587325 274.402578
-2.354180101794105 0.9941604329587322 274.24616399999996
-2.354180101794105 0.9941604329587322 274.08975
-2.3541801017941055 0.9941604329587325 273.93333599999994
-2.354180101794105 0.9941604329587322 273.776923
-2.354180101794106 0.9941604329587326 273.620509
-2.498272629891292 1.0550101062738906 273.307681
-2.354180101794105 0.9941604329587322 272.525613
-2.210087573696919 0.933310759643574 272.369199
-2.3541801017941055 0.9941604329587325 272.21278499999994
-2.210087573696919 0.933310759643574 272.05637199999995
-2.3541801017941055 0.9941604329587325 271.899958
-2.354180101794105 0.9941604329587322 271.74354399999993
-2.065995045599732 0.8724610863284157 271.430717
-2.4982726298912916 1.0550101062738906 270.648648
-2.498272629891292 1.0550101062738906 270.492234
-2.3541801017941055 0.9941604329587325 270.33582
-2.065995045599732 0.8724610863284157 270.179407
-2.2100875736969194 0.9333107596435742 270.022993
-1.9219034387278078 0.8116118020428414 269.866579
-2.2100875736969186 0.9333107596435739 269.71016499999996
-2.210087573696919 0.933310759643574 269.553752
-1.9219034387278082 0.8116118020428417 269.39733800000005
-1.9219034387278078 0.8116118020428414 269.240924
-1.777810910630621 0.7507621287276831 269.08451
-1.489625854436248 0.6290627820973667 268.928097
-1.6337183825334345 0.6899124554125249 268.458855
-1.4896258544362477 0.6290627820973667 268.302442
-1.777810910630621 0.7507621287276831 268.146028
-3.0746418210547772 1.2984084105049403 267.9896140000001
-3.074641821054777 1.29840841050494 267.8332
-1.6337183825334347 0.689912455412525 267.676787
-1.4896258544362477 0.6290627820973667 265.486994
-3.506918484121075 1.480957041420831 265.01775299999997
-3.506918484121076 1.4809570414208313 264.861339
-3.218733427926702 1.3592576947905146 264.704925
-3.362825956023889 1.4201073681056728 264.548512
-2.065995045599732 0.8724610863284157 264.3920979999999
-1.777810910630621 0.7507621287276832 264.235684
-1.9219034387278078 0.8116118020428414 264.07927
-3.362825956023889 1.4201073681056728 263.9228570000001
-3.2187334279267024 1.3592576947905148 263.76644300000004
-1.6337183825334347 0.689912455412525 263.610029
-1.777810910630621 0.7507621287276831 263.453616
-1.777810910630621 0.7507621287276831 263.297202
-1.9219034387278073 0.8116118020428413 263.140788
-3.2187334279267015 1.3592576947905144 262.984374
-3.218733427926702 1.3592576947905146 262.827961
-1.6337183825334343 0.6899124554125248 262.671547
-1.4896258544362475 0.6290627820973665 262.515133
-3.362825956023888 1.4201073681056726 262.358719
-3.362825956023889 1.4201073681056728 262.2023060000001
-2.0659950455997325 0.8724610863284159 262.045892
-1.777810910630621 0.7507621287276832 261.889478
-1.9219034387278078 0.8116118020428414 261.733064
-1.9219034387278082 0.8116118020428417 261.576651
-1.489625854436248 0.6290627820973667 261.420237
-1.4896258544362477 0.6290627820973667 260.950996
-1.4896258544362475 0.6290627820973665 260.79458199999993
-1.4896258544362475 0.6290627820973665 260.63816799999995
-1.9219034387278073 0.8116118020428413 260.481754
-1.9219034387278073 0.8116118020428413 260.325341
-1.6337183825334345 0.6899124554125249 260.168927
-3.5069184841210754 1.480957041420831 260.012513
-3.5069184841210754 1.480957041420831 259.856099
-3.3628259560238885 1.4201073681056728 259.699686
-3.6510100909929997 1.5418063257064054 259.543272
-3.651010090993 1.5418063257064056 259.3868580000001
-3.506918484121075 1.480957041420831 259.230444
-3.6510100909929997 1.5418063257064054 259.074031
-3.7951026190901866 1.6026559990215639 258.917617
-2.0659950455997325 0.8724610863284159 258.761203
-3.7951026190901866 1.6026559990215639 258.604789
-3.939195147187373 1.663505672336722 258.448376
-3.7951026190901875 1.6026559990215643 258.291962
-3.506918484121076 1.4809570414208313 258.135548
-3.939195147187374 1.6635056723367225 257.979134
-3.506918484121075 1.480957041420831 257.822721
-3.6510100909929992 1.5418063257064054 257.666307
-3.6510100909929997 1.5418063257064054 257.509893
-3.506918484121076 1.4809570414208313 257.353479
-3.506918484121076 1.4809570414208313 257.197066
-3.939195147187373 1.663505672336722 257.040652
-3.939195147187373 1.663505672336722 256.88423800000004
-3.939195147187373 1.663505672336722 256.727824
-3.506918484121076 1.4809570414208313 256.571411
-3.7951026190901858 1.6026559990215636 256.41499699999997
-1.9219034387278078 0.8116118020428414 256.25858299999993
-3.7951026190901866 1.6026559990215639 256.102169
-3.7951026190901866 1.6026559990215639 255.945756
-3.939195147187373 1.663505672336722 255.789342
-1.777810910630621 0.7507621287276832 255.632928
-3.7951026190901866 1.6026559990215639 255.476514
-4.227379282156484 1.7852046299374547 255.32010100000002
-3.7951026190901866 1.6026559990215639 255.163687
-3.939195147187373 1.663505672336722 255.007273
-4.083287675284559 1.7243553456518803 254.850859
-3.939195147187373 1.663505672336722 254.694446
-3.9391951471873723 1.6635056723367219 254.538032
-4.227379282156486 1.7852046299374553 254.381618
-3.9391951471873723 1.6635056723367219 254.22520499999996
-3.9391951471873723 1.6635056723367219 254.06879099999998
-3.7951026190901866 1.6026559990215639 253.91237699999996
-3.7951026190901875 1.6026559990215643 253.755963
-1.777810910630621 0.7507621287276832 253.59955
-2.0659950455997325 0.8724610863284159 253.44313600000004
-1.777810910630621 0.7507621287276831 253.286722
-1.9219034387278078 0.8116118020428414 253.130308
-1.9219034387278078 0.8116118020428414 252.97389499999997
-2.0659950455997325 0.8724610863284159 252.81748099999996
-2.0659950455997325 0.8724610863284159 252.66106700000003
-1.777810910630621 0.7507621287276831 252.504653
-3.939195147187373 1.663505672336722 252.34824
-3.7951026190901866 1.6026559990215639 252.191826
-3.9391951471873723 1.6635056723367219 252.035412
-4.227379282156485 1.785204629937455 251.878998
-4.08328767528456 1.7243553456518808 251.72258500000004
-2.210087573696919 0.933310759643574 251.56617099999997
-1.9219034387278078 0.8116118020428414 251.409757
-3.939195147187373 1.663505672336722 251.253343
-4.227379282156486 1.7852046299374553 251.09693
-4.227379282156486 1.7852046299374553 250.94051600000003
-4.227379282156484 1.7852046299374547 250.784102
-4.083287675284559 1.7243553456518803 250.627688
-2.065995045599732 0.8724610863284157 250.471275
-4.227379282156484 1.7852046299374547 250.314861
-1.6337183825334345 0.6899124554125249 250.158447
-1.6337183825334347 0.689912455412525 250.002033
-1.777810910630621 0.7507621287276832 249.84562000000003
-1.9219034387278078 0.8116118020428414 249.689206
-4.227379282156485 1.785204629937455 249.532792
-4.083287675284558 1.7243553456518799 249.376378
-4.515564338350858 1.9069039765677716 249.219965
-4.659656866448044 1.9677536498829296 249.063551
-4.659656866448044 1.9677536498829296 248.907137
-4.515564338350859 1.9069039765677718 248.750723
-4.659656866448044 1.9677536498829296 248.59431
-4.371471810253672 1.8460543032526133 248.437896
-4.80374847331997 2.0286029341685046 248.281482
-4.80374847331997 2.0286029341685046 248.125068
-4.659656866448044 1.9677536498829296 247.96865499999998
-4.659656866448044 1.9677536498829296 247.81224099999997
-4.515564338350858 1.9069039765677716 247.655827
-4.80374847331997 2.0286029341685046 247.49941300000003
-4.371471810253672 1.8460543032526133 247.343
-4.515564338350858 1.9069039765677716 247.186586
-4.371471810253671 1.8460543032526129 247.030172
-4.371471810253672 1.8460543032526133 246.873758
-4.515564338350858 1.9069039765677716 246.717345
-4.515564338350858 1.9069039765677716 246.560931
-4.659656866448044 1.9677536498829296 246.404517
-4.9478410014171565 2.0894526074836626 246.24810299999996
-4.80374847331997 2.0286029341685046 246.09169
-4.515564338350858 1.9069039765677716 245.935276
-4.659656866448044 1.9677536498829296 245.778862
-4.8037484733199705 2.0286029341685046 245.62244900000002
-4.80374847331997 2.0286029341685046 245.466035
-4.9478410014171565 2.0894526074836626 245.309621
-4.80374847331997 2.0286029341685046 245.153207
-4.80374847331997 2.0286029341685046 244.996794
-4.947841001417156 2.089452607483662 244.84038
-4.659656866448045 1.96775364988293 244.683966
-4.9478410014171565 2.0894526074836626 244.527552
-4.803748473319969 2.028602934168504 244.371139
-4.659656866448045 1.96775364988293 244.21472499999996
-4.9478410014171565 2.0894526074836626 244.058311
-4.659656866448044 1.9677536498829296 243.901897
-4.80374847331997 2.0286029341685046 243.74548399999998
-4.659656866448045 1.96775364988293 243.58907
-4.659656866448044 1.9677536498829296 243.43265600000004
-4.9478410014171565 2.0894526074836626 243.276242
-4.80374847331997 2.0286029341685046 243.119829
-5.091933529514343 2.1503022807988206 242.963415
-5.236026057611529 2.2111519541139786 242.807001
-5.091933529514343 2.1503022807988206 242.650587
-5.23602605761153 2.211151954113979 242.494174
-4.9478410014171565 2.0894526074836626 242.33776
-5.23602605761153 2.211151954113979 242.181346
-5.23602605761153 2.211151954113979 242.024932
-5.23602605761153 2.211151954113979 241.86851899999996
-5.524210192580641 2.332850911714712 241.71210500000004
-5.524210192580641 2.332850911714712 241.555691
-5.52421019258064 2.3328509117147114 241.39927699999998
-5.380117664483454 2.272001238399554 241.242864
-5.524210192580641 2.332850911714712 241.08645
-5.3801176644834525 2.272001238399553 240.930036
-5.524210192580641 2.332850911714712 240.773622
-5.524210192580641 2.332850911714712 240.617209
-5.812395248775014 2.4545502583450283 240.460795
-5.812395248775014 2.4545502583450287 240.304381
-5.524210192580641 2.332850911714712 240.14796700000002
-5.812395248775014 2.4545502583450283 239.991554
-5.8123952487750135 2.454550258345028 239.83514
-5.812395248775014 2.4545502583450283 239.678726
-5.812395248775014 2.4545502583450283 239.52231199999997
-5.668302720677827 2.3937005850298703 239.36589899999998
-5.812395248775014 2.4545502583450283 239.20948499999997
-6.100579383744126 2.576249215945761 239.053071
-6.100579383744126 2.576249215945761 238.896657
-5.812395248775014 2.4545502583450283 238.74024399999996
-5.956486855646939 2.515399542630603 238.58383000000003
-6.100579383744126 2.576249215945761 238.427416
-6.100579383744126 2.576249215945761 238.271002
-6.100579383744126 2.576249215945761 238.11458899999997
-5.956486855646938 2.5153995426306026 237.958175
-5.956486855646938 2.5153995426306026 237.801761
-6.3887644399385 2.697948562576078 237.645347
-6.244671911841312 2.6370988892609195 237.488934
-6.388764439938499 2.6979485625760775 237.33252000000002
-6.244671911841313 2.63709888926092 237.17610600000003
-6.244671911841312 2.6370988892609195 237.019692
-6.244671911841311 2.637098889260919 236.86327899999998
-5.956486855646939 2.515399542630603 236.706865
-6.100579383744126 2.576249215945761 236.550451
-6.244671911841311 2.637098889260919 236.394038
-6.532856046810423 2.758797846861652 236.237624
-6.388764439938499 2.6979485625760775 236.08121
-6.532856046810423 2.758797846861652 235.924796
-6.244671911841312 2.6370988892609195 235.768383
-6.532856046810423 2.758797846861652 235.611969
-6.388764439938499 2.6979485625760775 235.455555
-6.244671911841312 2.6370988892609195 235.29914100000002
-6.532856046810423 2.758797846861652 235.142728
-6.388764439938499 2.6979485625760775 234.986314
-6.532856046810424 2.7587978468616523 234.8299
-6.388764439938499 2.6979485625760775 234.673486
-6.532856046810423 2.758797846861652 234.517073
-6.388764439938499 2.6979485625760775 234.360659
-6.532856046810424 2.7587978468616523 234.204245
-6.67694857490761 2.8196475201768103 234.04783100000003
-6.244671911841311 2.637098889260919 233.891418
-6.532856046810423 2.758797846861652 233.735004
-6.532856046810423 2.758797846861652 233.57859
-6.532856046810424 2.7587978468616523 233.42217600000004
-6.676948574907612 2.8196475201768108 233.26576300000002
-6.67694857490761 2.8196475201768103 233.109349
-6.244671911841312 2.6370988892609195 232.952935
-6.3887644399385 2.697948562576078 232.796521
-6.388764439938499 2.6979485625760775 232.640108
-6.532856046810423 2.758797846861652 232.483694
-6.821041103004798 2.880497193491969 232.32728
-6.8210411030047995 2.8804971934919696 232.170866
-6.676948574907611 2.8196475201768108 232.014453
-7.109225237973908 3.002196151092701 231.858039
-6.821041103004798 2.880497193491969 231.701625
-6.676948574907609 2.81964752017681 231.545211
-6.532856046810423 2.758797846861652 231.388798
-6.965133631101985 2.941346866807127 231.232384
-6.965133631101984 2.941346866807127 231.07597000000004
-6.676948574907612 2.8196475201768108 230.919556
-6.821041103004797 2.8804971934919688 230.763143
-7.109225237973908 3.002196151092701 230.606729
-6.965133631101985 2.941346866807127 230.450315
-6.965133631101983 2.9413468668071268 230.293901
-7.1092252379739085 3.0021961510927015 230.13748800000002
-6.821041103004796 2.8804971934919683 229.981074
-7.397410294168281 3.123895497723018 229.82465999999997
-7.109225237973908 3.002196151092701 229.66824599999998
-7.397410294168281 3.123895497723018 229.511833
-7.397410294168281 3.123895497723018 229.355419
-7.253317766071097 3.0630458244078604 229.199005
-7.397410294168281 3.123895497723018 229.042591
-7.541502822265468 3.184745171038176 228.886178
-7.1092252379739085 3.0021961510927015 228.729764
-7.397410294168281 3.123895497723018 228.57334999999998
-7.39741029416828 3.123895497723017 228.416936
-7.397410294168281 3.123895497723018 228.26052299999998
-7.253317766071095 3.0630458244078596 228.104109
-7.397410294168282 3.1238954977230184 227.947695
-7.397410294168281 3.123895497723018 227.791281
-7.397410294168281 3.123895497723018 227.634868
-7.397410294168281 3.123895497723018 227.478454
-7.685594429137394 3.2455944553237512 227.32204000000002
-7.685594429137393 3.245594455323751 227.165627
-7.685594429137393 3.245594455323751 227.00921300000002
-7.541502822265468 3.184745171038176 226.852799
-7.2533177660710955 3.06304582440786 226.696385
-7.39741029416828 3.123895497723017 226.539972
-7.829686957234581 3.3064441286389097 226.38355800000002
-7.397410294168282 3.1238954977230184 226.227144
-7.685594429137394 3.2455944553237512 226.07073
-7.829686957234581 3.3064441286389097 225.914317
-7.541502822265468 3.184745171038176 225.75790299999997
-7.685594429137393 3.245594455323751 225.60148900000002
-7.829686957234579 3.306444128638909 225.445075
-7.685594429137393 3.245594455323751 225.288662
-7.973779485331765 3.3672938019540672 225.13224799999998
-7.829686957234579 3.306444128638909 224.975834
-7.685594429137393 3.245594455323751 224.81942
-7.685594429137393 3.245594455323751 224.66300699999996
-7.973779485331765 3.3672938019540672 224.506593
-8.117872013428952 3.4281434752692252 224.350179
-7.973779485331765 3.3672938019540672 224.193765
-7.973779485331765 3.3672938019540672 224.037352
-7.973779485331765 3.3672938019540672 223.880938
-7.829686957234581 3.3064441286389097 223.724524
-8.117872013428952 3.4281434752692252 223.56811
-8.117872013428952 3.4281434752692252 223.411697
-8.117872013428952 3.4281434752692252 223.255283
-8.261963620300879 3.488992759554801 223.098869
-8.261963620300877 3.4889927595548 222.942455
-8.406056148398063 3.5498424328699576 222.78604199999998
-8.261963620300877 3.4889927595548 222.629628
-8.406056148398065 3.5498424328699585 222.473214
-8.261963620300877 3.4889927595548 222.3168
-8.406056148398065 3.5498424328699585 222.16038699999996
-8.117872013428952 3.4281434752692252 222.003973
-8.117872013428952 3.4281434752692252 221.847559
-8.261963620300877 3.4889927595548 221.691145
-8.117872013428952 3.4281434752692252 221.534732
-8.406056148398065 3.5498424328699585 221.378318
-8.261963620300877 3.4889927595548 221.221904
-8.55014867649525 3.6106921061851156 221.06549
-8.406056148398065 3.5498424328699585 220.909077
-8.55014867649525 3.6106921061851156 220.75266299999998
-8.550148676495251 3.6106921061851165 220.59624899999997
-8.261963620300877 3.4889927595548 220.439835
-8.55014867649525 3.6106921061851156 220.283422
-8.694241204592437 3.671541779500275 220.127008
-8.261963620300877 3.4889927595548 219.970594
-8.55014867649525 3.6106921061851156 219.81418
-8.694241204592435 3.671541779500274 219.657767
-8.694241204592439 3.6715417795002754 219.501353
-8.406056148398065 3.549842432869959 219.344939
-8.406056148398065 3.5498424328699585 219.188525
-8.406056148398065 3.5498424328699585 219.032112
-8.406056148398065 3.5498424328699585 218.875698
-8.550148676495251 3.6106921061851165 218.719284
-8.550148676495251 3.6106921061851165 218.562871
-8.550148676495251 3.6106921061851165 218.406457
-8.694241204592439 3.6715417795002754 218.25004300000003
-8.694241204592435 3.671541779500274 218.093629
-8.838332811464362 3.7323910637858493 217.937216
-8.694241204592434 3.671541779500273 217.780802
-8.83833281146436 3.732391063785849 217.624388
-8.694241204592439 3.6715417795002754 217.467974
-8.83833281146436 3.732391063785849 217.311561
-8.83833281146436 3.732391063785849 217.155147
-8.98242533956155 3.7932407371010077 216.998733
-8.694241204592437 3.671541779500275 216.842319
-8.98242533956155 3.7932407371010077 216.685906
-8.550148676495251 3.6106921061851165 216.52949200000003
-8.694241204592439 3.6715417795002754 216.37307800000002
-8.98242533956155 3.793240737101008 216.21666400000004
-8.838332811464362 3.7323910637858493 216.060251
-9.126517867658736 3.8540904104161657 215.90383699999998
-9.126517867658736 3.8540904104161657 215.747423
-8.98242533956155 3.7932407371010077 215.591009
-9.126517867658736 3.8540904104161657 215.434596
-8.98242533956155 3.7932407371010077 215.278182
-8.838332811464362 3.7323910637858493 215.121768
-9.126517867658736 3.8540904104161657 214.96535399999996
-9.270610395755922 3.914940083731324 214.808941
-9.270610395755922 3.914940083731324 214.652527
-8.98242533956155 3.7932407371010077 214.496113
-9.126517867658736 3.8540904104161657 214.339699
-9.126517867658736 3.8540904104161657 214.183286
-9.126517867658734 3.8540904104161653 214.02687199999997
-9.270610395755922 3.914940083731324 213.870458
-8.838332811464362 3.7323910637858493 213.714044
-9.414702002627847 3.975789368016899 213.557631
-9.126517867658736 3.8540904104161657 213.401217
-9.414702002627847 3.975789368016899 213.24480300000002
-9.414702002627848 3.9757893680168994 213.088389
-9.558794530725034 4.036639041332057 212.931976
-9.270610395755922 3.914940083731324 212.775562
-9.414702002627847 3.975789368016899 212.619148
-9.70288705882222 4.097488714647215 212.462734
-9.558794530725036 4.036639041332058 212.306321
-9.558794530725033 4.036639041332056 212.149907
-9.70288705882222 4.097488714647215 211.99349299999997
-9.70288705882222 4.097488714647215 211.837079
-9.270610395755922 3.914940083731324 211.680666
-9.414702002627847 3.975789368016899 211.524252
-9.558794530725036 4.036639041332058 211.367838
-9.558794530725034 4.036639041332057 211.211424
-9.70288705882222 4.097488714647215 211.055011
-9.70288705882222 4.097488714647215 210.898597
-9.702887058822219 4.0974887146472145 210.742183
-9.70288705882222 4.097488714647215 210.585769
-9.414702002627847 3.975789368016899 210.429356
-9.70288705882222 4.097488714647215 210.272942
-9.846979586919407 4.158338387962373 210.116528
-9.414702002627847 3.975789368016899 209.960114
-9.846979586919407 4.158338387962373 209.803701
-9.702887058822219 4.0974887146472145 209.64728699999998
-9.846979586919407 4.158338387962373 209.490873
-9.846979586919405 4.158338387962373 209.33446
-9.558794530725034 4.036639041332057 209.17804600000002
-9.846979586919407 4.158338387962373 209.02163200000004
-9.991071193791331 4.219187672247948 208.86521799999997
-9.99107119379133 4.219187672247948 208.70880499999998
-9.991071193791331 4.219187672247948 208.552391
-9.846979586919405 4.158338387962373 208.395977
-9.99107119379133 4.219187672247948 208.239563
-9.846979586919405 4.158338387962373 208.08315
-9.991071193791333 4.219187672247949 207.92673600000003
-9.991071193791331 4.219187672247948 207.770322
-9.991071193791331 4.219187672247948 207.613908
-10.13516372188852 4.280037345563107 207.45749500000002
-10.135163721888519 4.280037345563106 207.30108099999998
-9.991071193791331 4.219187672247948 207.144667
-9.991071193791331 4.219187672247948 206.988253
-9.846979586919405 4.158338387962373 206.83183999999997
-10.135163721888519 4.280037345563106 206.67542599999996
-10.279256249985705 4.340887018878265 206.519012
-9.99107119379133 4.219187672247948 206.36259799999996
-9.558794530725033 4.036639041332056 206.206185
-9.991071193791331 4.219187672247948 206.049771
-9.846979586919405 4.158338387962373 205.893357
-10.135163721888519 4.280037345563106 205.736943
-10.135163721888517 4.280037345563105 205.58053
-10.135163721888519 4.280037345563106 205.424116
-10.135163721888517 4.280037345563105 205.26770199999999
-10.135163721888519 4.280037345563106 205.111288
-10.135163721888519 4.280037345563106 204.954875
-10.135163721888519 4.280037345563106 204.79846099999997
-10.135163721888517 4.280037345563105 204.642047
-10.135163721888519 4.280037345563106 204.485633
-9.991071193791333 4.219187672247949 204.32922
-9.991071193791333 4.219187672247949 204.172806
-9.99107119379133 4.219187672247948 204.01639199999997
-10.135163721888519 4.280037345563106 203.859978
-10.135163721888519 4.280037345563106 203.703565
-9.991071193791331 4.219187672247948 203.547151
-10.135163721888519 4.280037345563106 203.390737
-10.135163721888519 4.280037345563106 203.234323
-9.991071193791331 4.219187672247948 203.07791
-9.702887058822219 4.0974887146472145 202.921496
-10.135163721888519 4.280037345563106 202.765082
-9.991071193791331 4.219187672247948 202.608668
-10.135163721888519 4.280037345563106 202.452255
-10.135163721888519 4.280037345563106 202.295841
-10.135163721888519 4.280037345563106 202.13942699999998
-9.99107119379133 4.219187672247948 201.983013
-9.99107119379133 4.219187672247948 201.82659999999998
-9.70288705882222 4.097488714647215 201.670186
-10.13516372188852 4.280037345563107 201.513772
-9.70288705882222 4.097488714647215 201.35735799999998
-10.135163721888519 4.280037345563106 201.200945
-10.135163721888519 4.280037345563106 201.044531
-10.135163721888519 4.280037345563106 200.888117
-10.135163721888517 4.280037345563105 200.731704
-9.991071193791331 4.219187672247948 200.57529
-9.846979586919408 4.158338387962374 200.418876
-9.846979586919405 4.158338387962373 200.26246199999997
-10.135163721888517 4.280037345563105 200.106049
-9.991071193791331 4.219187672247948 199.949635
-9.70288705882222 4.097488714647215 199.793221
-9.70288705882222 4.097488714647215 199.636807
-9.99107119379133 4.219187672247948 199.48039399999996
-9.991071193791331 4.219187672247948 199.32398
-9.558794530725034 4.036639041332057 199.167566
-10.135163721888517 4.280037345563105 199.011152
-10.135163721888519 4.280037345563106 198.854739
-10.135163721888519 4.280037345563106 198.69832500000004
-9.99107119379133 4.219187672247948 198.541911
-9.991071193791331 4.219187672247948 198.385497
-9.846979586919405 4.158338387962373 198.22908399999997
-9.846979586919407 4.158338387962373 198.07267
-9.99107119379133 4.219187672247948 197.916256
-9.846979586919407 4.158338387962373 197.759842
-9.70288705882222 4.097488714647215 197.603429
-9.991071193791331 4.219187672247948 197.44701500000002
-9.991071193791333 4.219187672247949 197.290601
-9.702887058822219 4.0974887146472145 197.13418699999997
-9.991071193791333 4.219187672247949 196.977774
-9.846979586919405 4.158338387962373 196.82135999999997
-10.135163721888519 4.280037345563106 196.664946
-9.991071193791331 4.219187672247948 196.508532
-9.991071193791331 4.219187672247948 196.352119
-10.135163721888519 4.280037345563106 196.195705
-9.846979586919408 4.158338387962374 196.039291
-9.414702002627847 3.975789368016899 195.88287699999998
-10.135163721888519 4.280037345563106 195.726464
-10.135163721888519 4.280037345563106 195.57005
-9.991071193791331 4.219187672247948 195.413636
-9.991071193791331 4.219187672247948 195.257222
-9.991071193791331 4.219187672247948 195.100809
-9.99107119379133 4.219187672247948 194.944395
-9.991071193791331 4.219187672247948 194.78798100000003
-9.70288705882222 4.097488714647215 194.631567
-9.70288705882222 4.097488714647215 194.475154
-9.846979586919405 4.158338387962373 194.31873999999996
-9.558794530725034 4.036639041332057 194.162326
-9.846979586919407 4.158338387962373 194.005912
-9.991071193791333 4.219187672247949 193.849499
-10.135163721888519 4.280037345563106 193.693085
-10.135163721888519 4.280037345563106 193.536671
-9.414702002627847 3.975789368016899 193.380257
-9.846979586919405 4.158338387962373 193.22384399999999
-9.558794530725034 4.036639041332057 193.06743
-9.846979586919407 4.158338387962373 192.911016
-9.846979586919405 4.158338387962373 192.75460199999998
-9.991071193791331 4.219187672247948 192.598189
-9.70288705882222 4.097488714647215 192.441775
-9.558794530725034 4.036639041332057 192.285361
-9.846979586919407 4.158338387962373 192.128947
-9.70288705882222 4.097488714647215 191.972534
-9.414702002627848 3.9757893680168994 191.81612
-9.414702002627847 3.975789368016899 191.659706
-9.558794530725034 4.036639041332057 191.503293
-9.414702002627848 3.9757893680168994 191.346879
-9.126517867658736 3.8540904104161657 191.19046500000002
-2.354180101794106 0.9941604329587326 191.03405100000003
-9.558794530725034 4.036639041332057 190.877638
-9.414702002627847 3.975789368016899 190.72122400000003
-9.126517867658734 3.8540904104161653 190.56480999999997
-9.270610395755922 3.914940083731324 190.408396
-9.270610395755922 3.914940083731324 190.251983
-9.414702002627847 3.975789368016899 190.095569
-2.642364236763217 1.1158593905594651 189.93915500000003
-8.838332811464362 3.7323910637858493 189.782741
-8.98242533956155 3.793240737101008 189.626328
-8.694241204592437 3.671541779500275 189.469914
-8.838332811464362 3.7323910637858493 189.3135
-8.406056148398065 3.5498424328699585 189.157086
-8.838332811464362 3.7323910637858493 189.00067300000003
-8.694241204592437 3.671541779500275 188.84425900000002
-1.9219034387278078 0.8116118020428414 188.687845
-8.406056148398065 3.5498424328699585 188.531431
-8.83833281146436 3.732391063785849 188.375018
-8.838332811464362 3.7323910637858493 188.218604
-2.354180101794106 0.9941604329587326 188.06219
-8.98242533956155 3.7932407371010077 187.90577600000003
-8.694241204592437 3.671541779500275 187.749363
-8.694241204592437 3.671541779500275 187.592949
-8.83833281146436 3.732391063785849 187.436535
-8.838332811464362 3.7323910637858493 187.280121
-8.838332811464362 3.7323910637858493 187.123708
-8.838332811464364 3.73239106378585 186.96729400000004
-8.98242533956155 3.793240737101008 186.81088
-8.98242533956155 3.7932407371010077 186.654466
-8.838332811464362 3.7323910637858493 186.498053
-8.261963620300875 3.4889927595547996 186.34163899999996
-8.694241204592437 3.671541779500275 186.185225
-1.4896258544362477 0.6290627820973667 186.02881099999996
-1.9219034387278078 0.8116118020428414 185.872398
-1.9219034387278078 0.8116118020428414 185.715984
-1.777810910630621 0.7507621287276831 185.55957
-1.777810910630621 0.7507621287276831 185.40315600000002
-2.0659950455997325 0.8724610863284159 185.246743
-1.7778109106306208 0.750762128727683 185.090329
-1.6337183825334345 0.6899124554125249 184.933915
-2.0659950455997325 0.8724610863284159 184.777501
-2.2100875736969194 0.9333107596435742 184.621088
-2.3541801017941055 0.9941604329587325 184.464674
-1.9219034387278082 0.8116118020428417 184.30826000000002
-2.0659950455997325 0.8724610863284159 184.151846
-1.777810910630621 0.7507621287276831 183.99543300000002
-1.6337183825334345 0.6899124554125249 183.839019
-1.7778109106306208 0.750762128727683 183.68260499999997
-1.4896258544362477 0.6290627820973667 183.52619100000004
-1.6337183825334347 0.689912455412525 181.962054
-1.489625854436248 0.6290627820973667 181.80564
-1.633718382533435 0.6899124554125251 181.492813
-1.6337183825334345 0.6899124554125249 181.33639899999997
-1.489625854436248 0.6290627820973667 181.179985
-1.4896258544362482 0.6290627820973668 181.023572
-1.6337183825334343 0.6899124554125248 180.86715799999996
-1.777810910630621 0.7507621287276831 180.710744
-1.9219034387278078 0.8116118020428414 180.55433
-1.6337183825334347 0.689912455412525 180.397917
-1.7778109106306206 0.7507621287276829 180.24150299999997
-1.4896258544362477 0.6290627820973667 180.085089
