ply
format ascii 1.0
element vertex 913
property float32 x
property float32 y
property float32 z
element face 0
property list uint8 int32 vertex_indices
end_header
26.476625912724394 -19.02576379303543 69.96981200000002
29.531293266686074 -21.220808574585213 110.168145
31.97502636867948 -22.97684383848203 39.312718
35.02968981676155 -25.17188581331682 100.00125100000001
33.19689096673639 -23.854860067072956 98.74994100000002
11.203293048795649 -8.050542692001532 18.50969
40.52809027271663 -29.122965858763422 87.33173800000002
8.14862960071358 -5.8555007171667395 111.888696
39.91715602074838 -28.68395634111047 92.180564
18.5344923547759 -13.318648483692009 25.548308
27.087560164692647 -19.464773310688383 109.38607600000002
20.367291204801063 -14.63567422993588 17.258380000000002
37.47342291875497 -26.92792107721365 41.658924
38.695291422691476 -27.80594011251955 41.18968300000001
38.695291422691476 -27.805940112519554 91.08566799999998
11.203293048795652 -8.050542692001533 25.704722
38.08435717072322 -27.366930594866602 53.702783
17.923558102807647 -12.879638966039057 6.3094180000000035
42.97182337471005 -30.87900112266025 48.07188800000001
37.47342291875498 -26.927921077213654 47.289819000000016
25.86569166075614 -18.58675427538248 69.03133
39.917156020748386 -28.683956341110477 101.565389
14.257960402757321 -10.24558747355131 24.609826000000005
38.69529142269147 -27.805940112519547 97.02939
21.58915970873756 -15.51369326524178 114.54773000000002
25.25475740878788 -18.14774475772952 114.704143
20.97822545676931 -15.074683747588828 23.514929999999996
35.02968981676155 -25.17188581331682 84.51629
28.309424762749558 -20.342789539279302 28.050928000000003
36.86249257266632 -26.488914366275683 117.83241800000002
6.315826844808811 -4.538472164207878 113.922075
14.25796040275732 -10.245587473551309 20.855896
14.868894654725576 -10.684596991204263 8.186383000000003
9.981428450738745 -7.172526463410614 6.622245000000001
32.585956714768145 -23.415850549420007 134.412275
41.749958776653145 -30.000984894069326 94.99601100000001
28.920359014717803 -20.78179905693225 114.860557
42.971823374710056 -30.879001122660252 42.128165
29.531293266686063 -21.220808574585206 113.140006
28.30942476274955 -20.3427895392793 71.37753599999999
39.91715602074837 -28.683956341110466 85.29835900000002
32.58595671476814 -23.415850549420004 94.52677000000001
35.64062406872981 -25.61089533096978 89.208703
36.8624925726663 -26.48891436627567 127.999312
20.367291204801063 -14.63567422993588 21.481551
24.643827062699238 -17.70873804679156 69.656985
36.25155832069805 -26.049904848622724 117.05035000000002
32.58595671476813 -23.41585054942 107.97835200000002
18.5344923547759 -13.318648483692009 19.604586
15.479825000814213 -11.12360370214222 114.078488
28.92035901471781 -20.781799056932254 100.470493
6.926761096777075 -4.977481681860838 4.901693999999999
14.257960402757321 -10.24558747355131 5.840176000000001
30.75315786474296 -22.098824803176118 110.7938
17.312627756718985 -12.440632255101084 26.330377
41.139024524684885 -29.561975376416374 87.957393
24.64382706269923 -17.708738046791556 91.554909
6.3158268448088215 -4.538472164207886 13.504449999999999
28.920359014717803 -20.78179905693225 73.72374200000002
33.19689096673639 -23.854860067072952 54.641265
33.80782521870465 -24.293869584725908 133.78662000000003
36.862492572666305 -26.488914366275676 128.781381
14.257960402757321 -10.24558747355131 20.386655
6.3158268448088215 -4.538472164207886 4.119625
11.814227300763902 -8.489552209654482 127.686484
6.3158268448088215 -4.538472164207886 16.632725000000004
33.80782521870464 -24.2938695847259 128.624967
6.315826844808821 -4.538472164207885 3.963211000000001
28.920359014717803 -20.78179905693225 112.670765
39.91715602074837 -28.683956341110466 92.80621899999998
14.257960402757316 -10.245587473551307 115.17338499999998
38.69529142269147 -27.805940112519547 96.40373500000001
13.036095804700414 -9.367571244960391 16.163484000000004
6.315826844808821 -4.538472164207885 2.868315
33.19689096673638 -23.854860067072945 131.90965500000001
6.315826844808821 -4.538472164207885 8.342796000000002
25.254757408787878 -18.14774475772952 82.795739
25.865691660756134 -18.58675427538247 117.206763
8.759559946802236 -6.294507428104709 8.655624000000001
15.479825000814227 -11.12360370214223 8.968451
12.425161552732153 -8.928561727307432 126.12234700000002
17.923558102807633 -12.879638966039046 95.934494
6.315826844808821 -4.538472164207885 2.711902000000001
36.86249257266632 -26.488914366275683 96.560149
8.148629600713583 -5.855500717166742 19.917414
16.090759252782483 -11.562613219795184 9.124865000000003
6.315826844808821 -4.538472164207885 3.4939699999999996
6.315826844808821 -4.538472164207885 13.973691
-19.617086385859313 -45.8894668011506 40.876855000000006
-17.5470876227764 -41.04720135721652 35.245961
-15.47708885969349 -36.20493591328245 82.48291199999998
-24.052798561205375 -56.26575115888938 50.105266
-20.208515684219794 -47.2729737408919 88.583048
-20.504228442810646 -47.9647227881823 117.676005
-14.885659561333009 -34.821428973541146 34.776719
-20.799943091990887 -48.65647625805295 95.46525300000002
-23.461371153434285 -54.88224864172834 54.954093
-13.998517504381674 -32.746172986509436 132.53530999999998
-21.982799798122464 -51.42348571495532 96.090908
-18.434229679727736 -43.122457344248225 72.472432
-17.842802271956643 -41.73895482708718 85.141945
-14.885659561333005 -34.82142897354114 33.994651
-16.068516267464588 -37.58843843044351 76.85201700000002
-24.644227859565856 -57.649258098630696 57.14388500000001
-25.23565526733695 -59.032760615791744 48.853956000000004
-24.052798561205375 -56.26575115888938 46.19492300000001
-15.181374210513248 -35.51318244341179 84.672704
-24.348513210385622 -56.95750462876005 52.29505900000001
-20.79994309199089 -48.656476258052955 116.424695
-13.702802855201423 -32.05441951663876 125.18386400000001
-24.939940618156708 -58.34100714592109 67.15436500000001
-23.75708391202513 -55.573997689018725 65.120986
-15.477088859693486 -36.20493591328244 79.51105100000001
-16.659945565825062 -38.971945370184805 83.89063599999999
-16.659945565825062 -38.971945370184805 43.535889
-12.22423149988961 -28.595656589865754 78.259741
-12.815660798250098 -29.979163529607074 78.728982
-21.687085148942227 -50.73173224508467 114.54773000000002
-21.68708514894222 -50.73173224508466 95.62166600000002
-23.461371153434282 -54.88224864172833 55.110506
-21.095657741171134 -49.34822972792362 90.929254
-14.294232153561916 -33.4379264563801 32.89975400000001
-19.61708638585931 -45.88946680115059 67.310778
-21.98279979812246 -51.423485714955305 73.410915
-15.772801618284337 -36.896684960572834 79.667464
-14.885659561333009 -34.821428973541146 36.966512
-21.391372390351368 -50.03998319779426 111.88869599999998
-19.321371736679072 -45.19771333127994 45.725682
-23.165656504254038 -54.19049517185768 68.56208800000002
-18.72994432890798 -43.81421081411889 72.941673
-20.504228442810646 -47.9647227881823 97.655045
-15.77280161828434 -36.89668496057284 39.625545
-20.799943091990887 -48.65647625805295 74.03657000000001
-13.111375447430339 -30.670916999477733 34.30747800000001
-16.364230916644825 -38.28019190031416 80.449533
-16.364230916644825 -38.280191900314165 120.804279
-23.165656504254038 -54.19049517185768 72.15960500000001
-23.757083912025134 -55.57399768901873 60.74140100000001
-14.29423215356191 -33.43792645638008 123.306899
-21.982799798122464 -51.42348571495532 52.45147300000001
-19.321371736679072 -45.197713331279935 99.21918300000002
-19.025658978088217 -44.50596428398954 75.60070700000001
-13.998517504381665 -32.746172986509414 119.396556
-14.88565956133301 -34.82142897354115 130.814759
-18.138515030547502 -42.430703874377585 94.370356
-21.095657741171127 -49.34822972792361 100.314079
-24.34851321038562 -56.95750462876005 65.2774
-22.278514447302697 -52.11523918482596 101.878216
-8.971376030675128 -20.98638168902933 26.799618
-14.589944912152763 -34.12967550367048 35.715202
-21.687085148942224 -50.731732245084665 113.922075
-19.321371736679072 -45.197713331279935 59.49009100000001
-20.799943091990894 -48.65647625805296 91.554909
-22.278514447302705 -52.11523918482597 92.33697800000002
-22.574229096482945 -52.80699265469663 51.200163
-8.971376030675128 -20.98638168902933 31.492031000000004
-24.34851321038562 -56.95750462876005 66.84153700000002
-24.34851321038562 -56.95750462876005 64.02609
-13.702802855201426 -32.05441951663877 33.056168
-22.57422909648295 -52.806992654696636 99.062769
-21.687085148942224 -50.731732245084665 41.815338
-21.68708514894222 -50.73173224508466 105.162905
-19.91280103503955 -46.58122027102124 107.978352
-19.912801035039553 -46.581220271021245 42.44099299999999
-24.348513210385615 -56.95750462876004 54.172024
-10.154232736806703 -23.75339114593169 28.207342000000004
-20.2085156842198 -47.27297374089191 100.62690600000002
-21.09565774117113 -49.348229727923616 71.690363
-17.842802271956643 -41.738954827087184 110.01173100000001
-21.98279979812246 -51.423485714955305 95.77808
-18.13851503054749 -42.43070387437757 90.303599
-16.955658324415914 -39.663694417475206 132.848138
-24.348513210385622 -56.95750462876005 49.94885300000001
-24.348513210385615 -56.95750462876004 52.60788600000001
-19.321371736679062 -45.19771333127992 110.637386
-12.815660798250095 -29.979163529607067 30.240720999999997
-22.278514447302705 -52.11523918482597 72.78526
-21.09565774117113 -49.348229727923616 116.89393600000001
-20.208515684219797 -47.272973740891906 117.519591
-12.22423149988961 -28.595656589865754 31.022789000000003
-16.659945565825062 -38.971945370184805 131.75324200000003
-24.93994061815671 -58.3410071459211 57.45671200000001
-6.605662618411975 -15.452362775224604 21.01231
-19.912801035039553 -46.581220271021245 72.316018
-16.955658324415918 -39.66369441747521 90.460013
-21.095657741171127 -49.34822972792361 116.111867
-21.68708514894223 -50.73173224508468 114.234902
-12.224231499889612 -28.595656589865758 30.397135
-6.901377267592215 -16.144116245095258 24.922653
-24.64422785956586 -57.6492580986307 53.38995500000001
-17.25137297359616 -40.35544788734586 120.178624
-24.939940618156708 -58.34100714592109 54.01561000000001
-14.294232153561916 -33.4379264563801 81.700843
-21.687085148942224 -50.731732245084665 98.593528
-24.34851321038562 -56.95750462876005 47.289819
-13.702802855201423 -32.05441951663876 125.653106
-24.052798561205375 -56.26575115888938 67.467192
-20.799943091990883 -48.65647625805295 114.860557
-20.504228442810643 -47.964722788182286 95.15242500000001
-11.337089442938275 -26.520400602834044 129.719863
-24.052798561205375 -56.26575115888939 46.50775000000001
-13.702802855201426 -32.05441951663877 133.160965
-14.589944912152767 -34.129675503670484 35.87161600000001
-21.982799798122464 -51.42348571495532 96.716563
-17.5470876227764 -41.04720135721652 133.78662
-21.68708514894222 -50.73173224508466 114.07848800000001
-21.095657741171127 -49.34822972792361 73.723742
-13.998517504381674 -32.746172986509436 86.393255
-23.46137115343428 -54.882248641728324 46.038509000000005
-22.574229096482952 -52.80699265469664 98.749941
-13.99851750438167 -32.74617298650943 77.94691300000001
-19.617086385859313 -45.8894668011506 40.720442000000006
-11.041374793758036 -25.828647132963393 32.430513
-18.72994432890797 -43.814210814118866 113.60924700000001
-14.589944912152761 -34.12967550367047 81.231602
-21.68708514894222 -50.73173224508465 73.254501
-23.75708391202513 -55.573997689018725 58.864436000000005
-13.702802855201426 -32.05441951663877 76.382776
-16.659945565825065 -38.97194537018481 37.27933900000001
-19.61708638585931 -45.88946680115059 89.052289
-16.659945565825062 -38.971945370184805 123.61972699999998
-22.278514447302705 -52.11523918482597 69.187743
-22.8699418550738 -53.49874170198703 61.054229000000014
-25.531369916517193 -59.7245140856624 59.17726400000001
-18.43422967972774 -43.12245734424824 75.913534
-15.47708885969349 -36.20493591328245 125.027451
-11.928518741298753 -27.903907542575347 129.094208
-17.25137297359616 -40.35544788734586 71.064708
-25.82708456569743 -60.41626755553305 61.67988400000001
-18.434229679727736 -43.122457344248225 42.597407
-19.912801035039553 -46.581220271021245 89.365117
-20.504228442810643 -47.964722788182286 109.54249000000002
-13.40708820602119 -31.362666046768123 32.586927
-18.13851503054749 -42.43070387437757 93.431874
-23.165656504254038 -54.19049517185767 69.813398
-21.68708514894222 -50.73173224508466 44.161544000000006
-14.589944912152763 -34.12967550367048 33.36899600000001
-20.208515684219797 -47.272973740891906 42.12816500000001
-15.181374210513244 -35.513182443411786 131.284
-16.65994556582506 -38.9719453701848 111.73228200000001
-22.27851444730271 -52.11523918482598 100.93973400000002
-10.745662035167188 -25.136898085673007 28.520170000000004
-21.09565774117113 -49.348229727923616 109.698904
-23.757083912025134 -55.57399768901873 69.34415700000001
-24.34851321038562 -56.95750462876005 50.26168
-21.095657741171134 -49.34822972792362 91.39849500000001
-24.34851321038562 -56.95750462876005 50.887335
-22.8699418550738 -53.49874170198703 65.903055
-23.165656504254038 -54.19049517185768 72.003191
-11.041374793758035 -25.82864713296339 29.302238000000003
-14.885659561333005 -34.82142897354114 35.55878800000001
-16.06851626746458 -37.588438430443496 118.458073
-21.09565774117113 -49.348229727923616 44.317958
-22.869941855073797 -53.49874170198702 90.77284
-22.869941855073797 -53.49874170198702 96.872976
-11.928518741298763 -27.903907542575368 30.709962
-21.982799798122464 -51.42348571495531 94.83959800000001
-21.095657741171134 -49.34822972792362 98.2807
-24.644227859565856 -57.649258098630696 61.21064200000001
-15.772801618284333 -36.89668496057283 121.899176
-24.348513210385615 -56.95750462876004 51.043749
-9.267090679855368 -21.678135158899984 25.391895000000005
-11.92851874129876 -27.90390754257536 125.965933
-17.842802271956643 -41.73895482708718 84.203463
-18.434229679727736 -43.122457344248225 104.380836
-15.477088859693492 -36.204935913282455 130.03269
-17.842802271956643 -41.73895482708718 133.473793
-25.531369916517185 -59.72451408566239 65.43381400000001
-20.799943091990883 -48.65647625805295 92.18056400000002
-23.165656504254038 -54.19049517185768 49.166784
-15.18137421051325 -35.5131824434118 77.477672
-20.504228442810646 -47.96472278818229 113.29642000000001
-24.052798561205375 -56.26575115888938 66.685123
-14.885659561333005 -34.82142897354114 81.544429
-24.34851321038562 -56.95750462876005 47.602647000000005
-17.5470876227764 -41.04720135721652 134.255862
-21.391372390351375 -50.03998319779427 74.192983
-16.95565832441592 -39.66369441747522 83.421394
-8.675661381494884 -20.294628219158668 26.01755
-13.99851750438167 -32.74617298650943 121.429934
-23.16565650425404 -54.190495171857684 63.869676000000005
-20.50422844281064 -47.96472278818228 116.581108
-15.477088859693486 -36.20493591328244 125.34027800000001
-24.93994061815671 -58.3410071459211 56.51823000000002
-19.321371736679072 -45.197713331279935 103.129526
-9.56280532903561 -22.369888628770642 28.832997000000002
-19.61708638585931 -45.88946680115059 71.377536
-25.235655267336945 -59.03276061579173 58.082367
-25.531369916517193 -59.7245140856624 49.01037
-15.477088859693486 -36.20493591328244 84.04704900000002
-17.842802271956643 -41.738954827087184 43.69230300000001
-21.982799798122464 -51.42348571495531 98.43711400000001
-18.138515030547495 -42.43070387437758 106.414215
-20.208515684219797 -47.272973740891906 107.196284
-19.321371736679062 -45.19771333127992 85.611187
-8.675661381494885 -20.29462821915867 27.425273000000004
-24.644227859565856 -57.649258098630696 47.75906
-10.1542327368067 -23.753391145931683 78.885396
-22.278514447302705 -52.11523918482597 70.908295
-25.82708456569743 -60.41626755553305 62.618365999999995
-21.09565774117113 -49.348229727923616 115.329798
-24.93994061815671 -58.3410071459211 49.323198000000005
-17.251372973596155 -40.35544788734585 124.87103700000002
-24.644227859565863 -57.64925809863071 58.70802200000001
-21.68708514894222 -50.73173224508466 73.567328
-15.77280161828434 -36.89668496057284 37.122926
-19.02565897808822 -44.50596428398954 115.48621200000001
-24.939940618156708 -58.34100714592109 51.982231000000006
-20.504228442810646 -47.9647227881823 41.18968300000001
-24.644227859565856 -57.649258098630696 55.423334
-17.842802271956643 -41.738954827087184 88.426634
-23.461371153434285 -54.88224864172834 68.249261
-18.434229679727732 -43.12245734424822 89.677944
-15.772801618284342 -36.89668496057285 80.293119
-19.02565897808822 -44.50596428398954 84.985532
-23.757083912025134 -55.57399768901873 64.182504
-15.772801618284337 -36.896684960572834 118.77090100000001
-9.267090679855364 -21.678135158899977 127.53007099999999
-21.09565774117113 -49.348229727923616 102.503871
-25.82708456569743 -60.41626755553305 62.931194
-21.39137239035137 -50.039983197794264 45.882095
-12.22423149988961 -28.595656589865754 130.50193200000004
-18.434229679727736 -43.122457344248225 74.975052
-20.799943091990887 -48.65647625805295 66.997951
-21.095657741171127 -49.3482297279236 100.00125100000001
-15.181374210513248 -35.51318244341179 128.312139
-22.869941855073797 -53.49874170198702 62.149125
-15.477088859693492 -36.204935913282455 77.164844
-24.64422785956586 -57.6492580986307 65.59022700000001
-24.052798561205375 -56.26575115888938 66.21588200000001
-17.84280227195664 -41.73895482708717 118.927315
-7.78851932454355 -18.219372232126965 24.453412
-19.912801035039557 -46.58122027102126 108.134766
-17.547087622776402 -41.04720135721652 36.497271
-24.939940618156708 -58.34100714592109 48.07188800000001
-23.75708391202513 -55.573997689018725 69.03133
-14.589944912152768 -34.12967550367049 121.586348
-17.5470876227764 -41.04720135721652 41.346097
-21.391372390351375 -50.03998319779428 45.256440000000005
-13.40708820602119 -31.362666046768123 31.961272000000005
-21.09565774117113 -49.348229727923616 74.505811
-18.43422967972773 -43.12245734424821 119.240142
-25.531369916517193 -59.7245140856624 63.556849
-8.675661381494884 -20.294628219158668 27.112446
-14.885659561333002 -34.82142897354113 79.35463700000001
-19.912801035039553 -46.581220271021245 114.391316
-24.348513210385615 -56.95750462876004 48.228302000000006
-20.208515684219797 -47.272973740891906 94.683184
-18.434229679727732 -43.12245734424822 108.760421
-24.93994061815671 -58.3410071459211 54.328438
-24.052798561205375 -56.26575115888938 65.746641
-25.531369916517193 -59.7245140856624 63.71326200000001
-17.547087622776395 -41.047201357216515 117.05035000000002
-25.531369916517185 -59.72451408566239 62.305539
-12.815660798250098 -29.979163529607074 125.809519
-7.492804675363307 -17.527618762256306 25.861136000000005
-20.79994309199089 -48.656476258052955 66.37229600000002
-17.842802271956643 -41.73895482708718 88.113807
-20.79994309199089 -48.656476258052955 108.29118000000001
-23.16565650425404 -54.190495171857684 67.93643300000001
-13.998517504381674 -32.746172986509436 133.943034
-20.504228442810646 -47.96472278818229 115.79904
-24.05279856120537 -56.26575115888937 53.07712800000001
-19.912801035039553 -46.581220271021245 111.10662700000002
-24.34851321038562 -56.95750462876005 59.802919
-16.95565832441591 -39.66369441747519 132.691724
-22.574229096482945 -52.80699265469663 66.52871
-22.86994185507379 -53.49874170198701 96.24732100000001
-16.364230916644825 -38.28019190031416 76.069948
-24.052798561205375 -56.26575115888939 50.41809400000002
-19.025658978088217 -44.50596428398954 105.63214600000002
-21.095657741171124 -49.348229727923595 92.80621900000001
-13.998517504381674 -32.746172986509436 82.013671
-19.617086385859306 -45.88946680115058 107.665525
-18.72994432890798 -43.81421081411889 75.287879
-13.998517504381674 -32.746172986509436 122.524831
-19.617086385859306 -45.88946680115058 40.2512
-21.391372390351375 -50.03998319779427 115.173385
-18.72994432890798 -43.81421081411889 74.818638
-21.39137239035137 -50.039983197794264 116.737522
-22.278514447302705 -52.11523918482597 69.969812
-14.885659561333009 -34.821428973541146 33.525409
-16.068516267464585 -37.5884384304435 37.59216700000001
-22.869941855073797 -53.49874170198702 46.351337
-12.81566079825009 -29.979163529607053 133.00455200000002
-13.111375447430337 -30.670916999477726 32.743341
-23.165656504254034 -54.19049517185766 99.68842400000001
-13.40708820602119 -31.362666046768123 32.274099
-7.492804675363307 -17.527618762256306 24.140585
-16.36423091664482 -38.28019190031415 87.488152
-22.2785144473027 -52.11523918482597 101.721803
-19.912801035039553 -46.581220271021245 42.284579
-14.294232153561913 -33.43792645638009 123.463313
-22.278514447302705 -52.11523918482597 63.400435
-18.434229679727736 -43.122457344248225 90.147185
-14.885659561333005 -34.82142897354114 82.95215299999998
-20.50422844281064 -47.96472278818228 111.263041
-20.79994309199088 -48.65647625805294 117.363177
-12.224231499889605 -28.59565658986574 126.12234700000002
-24.052798561205375 -56.26575115888939 57.300299
-20.79994309199089 -48.656476258052955 69.50057100000001
-21.687085148942227 -50.73173224508467 93.74470100000002
-12.22423149988961 -28.595656589865754 78.416154
-17.842802271956643 -41.738954827087184 84.829118
-16.65994556582506 -38.97194537018479 133.630207
-25.23565526733695 -59.032760615791744 56.831058000000006
-21.982799798122464 -51.42348571495531 97.81145900000001
-22.574229096482945 -52.80699265469663 96.40373500000001
-22.869941855073797 -53.49874170198702 70.439053
-24.644227859565863 -57.64925809863071 56.048989000000006
-16.364230916644825 -38.280191900314165 83.57780800000002
-24.34851321038562 -56.95750462876005 60.89781500000001
-19.912801035039546 -46.58122027102123 95.93449400000002
-22.278514447302705 -52.11523918482597 46.66416400000001
-17.842802271956643 -41.73895482708718 39.312718000000004
-22.869941855073797 -53.49874170198702 91.085668
-24.644227859565863 -57.64925809863071 64.808159
-4.831378504509305 -11.30185080116119 20.230241
-6.605662618411975 -15.452362775224604 23.045688
-18.729944328907976 -43.81421081411888 86.236842
-24.9399406181567 -58.341007145921076 52.138645
-23.461371153434282 -54.88224864172833 58.23878100000001
-21.09565774117113 -49.348229727923616 73.09808700000002
-20.504228442810646 -47.9647227881823 98.124286
-25.531369916517193 -59.7245140856624 62.77478
-22.869941855073797 -53.49874170198702 60.115746
-21.391372390351368 -50.03998319779426 104.69366400000001
-25.23565526733695 -59.032760615791744 64.338917
-20.504228442810643 -47.964722788182286 102.03463
-24.939940618156708 -58.34100714592109 56.98747099999999
-21.39137239035137 -50.039983197794264 92.02415000000002
-21.982799798122464 -51.42348571495532 100.78332000000002
-13.998517504381674 -32.746172986509436 77.790499
-13.70280285520143 -32.054419516638774 78.572568
-24.64422785956586 -57.6492580986307 47.44623300000001
-25.531369916517193 -59.7245140856624 61.52347000000001
-22.57422909648295 -52.806992654696636 96.56014900000001
-24.93994061815671 -58.3410071459211 64.964572
-21.39137239035137 -50.039983197794264 99.53201
-6.605662618411975 -15.452362775224604 21.794378000000002
-14.885659561333005 -34.82142897354114 76.53918900000001
-13.998517504381663 -32.746172986509414 123.776141
-20.504228442810643 -47.964722788182286 104.06800900000002
-21.982799798122464 -51.42348571495531 44.00513000000001
-15.181374210513242 -35.51318244341178 130.65834500000003
-22.574229096482945 -52.80699265469662 71.221122
-24.93994061815671 -58.3410071459211 57.61312600000001
-14.885659561333005 -34.82142897354114 119.083728
-14.885659561333002 -34.82142897354113 120.647866
-21.095657741171127 -49.34822972792361 73.880156
-15.47708885969349 -36.20493591328245 37.435753
-18.434229679727736 -43.122457344248225 41.50251
-22.278514447302705 -52.11523918482597 55.736160999999996
-21.982799798122468 -51.423485714955326 94.057529
-13.998517504381674 -32.746172986509436 34.151064000000005
-21.98279979812246 -51.423485714955305 110.480972
-19.617086385859313 -45.8894668011506 85.29835900000002
-25.531369916517193 -59.7245140856624 61.83629700000001
-22.869941855073797 -53.49874170198702 97.498631
-19.32137173667907 -45.19771333127993 112.51435100000002
-18.138515030547495 -42.43070387437758 118.61448700000001
-22.574229096482945 -52.80699265469663 59.333677
-17.547087622776395 -41.047201357216515 117.988832
-15.772801618284342 -36.89668496057285 121.273521
-16.659945565825065 -38.97194537018481 38.37423600000001
-21.09565774117113 -49.348229727923616 98.90635499999999
-25.531369916517185 -59.72451408566239 55.892575
-22.278514447302708 -52.115239184825974 44.943613000000006
-17.842802271956643 -41.73895482708718 134.099448
-21.982799798122464 -51.42348571495532 68.092847
-20.504228442810646 -47.9647227881823 102.816699
-24.644227859565856 -57.649258098630696 48.384715
-19.025658978088217 -44.505964283989535 115.95545300000002
-23.165656504254038 -54.19049517185768 64.651745
-15.772801618284342 -36.89668496057285 82.170084
-17.842802271956643 -41.738954827087184 134.412275
-15.47708885969349 -36.20493591328245 82.639326
-16.65994556582506 -38.97194537018479 131.44041400000003
-16.364230916644825 -38.280191900314165 87.01891
-23.165656504254038 -54.19049517185768 68.71850200000002
-14.589944912152763 -34.12967550367048 77.634086
-20.208515684219797 -47.272973740891906 104.53725
-24.348513210385615 -56.95750462876004 47.133405
-16.955658324415914 -39.663694417475206 130.971173
-19.617086385859313 -45.8894668011506 71.53395000000002
-7.78851932454355 -18.219372232126965 23.984171
-17.547087622776402 -41.04720135721652 84.359877
-21.095657741171127 -49.34822972792361 75.757121
-22.57422909648295 -52.806992654696636 94.52677
-16.068516267464585 -37.5884384304435 34.463892
-21.391372390351375 -50.03998319779427 109.386076
-18.434229679727736 -43.122457344248225 43.223062000000006
-15.47708885969349 -36.20493591328245 31.804858
-24.939940618156708 -58.34100714592109 55.579748000000016
-21.68708514894222 -50.73173224508466 105.94497400000002
-13.998517504381674 -32.746172986509436 36.653684000000005
-20.79994309199089 -48.656476258052955 45.412854
-21.982799798122464 -51.42348571495531 70.28264000000001
-22.574229096482945 -52.80699265469663 91.867737
-18.434229679727732 -43.12245734424822 122.83765800000002
-18.138515030547488 -42.43070387437756 106.727042
-21.095657741171134 -49.34822972792362 115.642626
-23.757083912025134 -55.57399768901873 52.920714000000004
-16.955658324415914 -39.6636944174752 87.644565
-21.391372390351375 -50.03998319779427 102.660285
-13.40708820602119 -31.362666046768123 33.838237
-15.772801618284337 -36.896684960572834 120.491452
-20.208515684219794 -47.2729737408919 71.846777
-9.267090679855368 -21.678135158899984 28.989411
-23.16565650425404 -54.190495171857684 56.205403
-24.644227859565856 -57.64925809863069 46.820578
-18.13851503054749 -42.43070387437757 87.80097900000001
-21.391372390351364 -50.03998319779425 110.95021400000002
-21.98279979812246 -51.423485714955305 100.157665
-24.939940618156715 -58.341007145921104 53.54636900000001
-19.912801035039553 -46.581220271021245 41.97175200000001
-14.885659561333002 -34.82142897354113 129.250622
-7.78851932454355 -18.219372232126965 27.26886
-21.982799798122464 -51.42348571495532 102.19104400000002
-14.294232153561916 -33.4379264563801 36.81009800000001
-15.181374210513248 -35.51318244341179 77.321258
-21.095657741171124 -49.348229727923595 112.35793700000002
-5.127093153689547 -11.993604271031847 17.727620999999996
-7.197091916772458 -16.835869714965916 23.827757
-11.041374793758035 -25.82864713296339 29.927893000000005
-23.165656504254038 -54.19049517185768 67.78002
-24.644227859565856 -57.649258098630696 57.76953999999999
-21.095657741171127 -49.3482297279236 113.14000600000001
-23.165656504254038 -54.19049517185767 56.361816
-15.477088859693483 -36.20493591328244 119.865797
-22.278514447302708 -52.115239184825974 103.598767
-24.644227859565856 -57.649258098630696 56.67464400000001
-7.78851932454355 -18.219372232126965 127.37365699999998
-21.68708514894222 -50.73173224508465 100.470493
-15.181374210513244 -35.513182443411786 128.62496700000003
-24.34851321038562 -56.95750462876005 51.825818000000005
-22.27851444730271 -52.11523918482598 93.58828800000002
-10.154232736806705 -23.753391145931694 128.155726
-23.461371153434282 -54.88224864172833 61.99271100000001
-22.278514447302705 -52.11523918482597 102.347457
-19.912801035039553 -46.581220271021245 114.70414300000002
-22.574229096482945 -52.80699265469663 54.641265000000004
-21.982799798122464 -51.42348571495531 93.119047
-24.644227859565856 -57.649258098630696 49.792439
-15.772801618284337 -36.896684960572834 82.79573900000001
-19.025658978088217 -44.50596428398954 40.56402800000001
-15.47708885969349 -36.20493591328245 35.089547
-14.885659561333009 -34.821428973541146 119.55296999999999
-13.70280285520143 -32.054419516638774 132.37889700000002
-23.461371153434282 -54.88224864172833 45.100027
-19.617086385859313 -45.8894668011506 107.82193899999999
-15.18137421051325 -35.5131824434118 79.041809
-24.64422785956586 -57.6492580986307 51.356576000000004
-25.23565526733695 -59.032760615791744 54.797678999999995
-11.928518741298761 -27.903907542575364 31.179203
-20.799943091990883 -48.65647625805295 107.352697
-21.095657741171127 -49.34822972792361 93.90111500000002
-19.025658978088217 -44.50596428398954 121.117107
-21.982799798122464 -51.42348571495532 101.408975
-16.06851626746458 -37.588438430443496 39.46913200000001
-15.181374210513244 -35.513182443411786 79.98029200000002
-25.531369916517185 -59.72451408566239 60.27215999999999
-21.39137239035137 -50.039983197794264 111.575868
-21.687085148942224 -50.731732245084665 115.016971
-24.052798561205375 -56.26575115888938 60.584987
-20.504228442810646 -47.96472278818229 104.22442200000002
-22.8699418550738 -53.49874170198703 64.495331
-12.815660798250095 -29.979163529607067 132.066069
-19.91280103503955 -46.58122027102124 107.03987000000001
-18.729944328907976 -43.81421081411888 89.52153
-14.589944912152761 -34.12967550367047 129.407035
-20.504228442810646 -47.96472278818229 92.962633
-16.65994556582506 -38.9719453701848 88.739462
-21.095657741171127 -49.34822972792361 91.71132300000001
-13.998517504381665 -32.746172986509414 128.781381
-16.95565832441592 -39.66369441747522 86.86249700000002
-17.842802271956643 -41.738954827087184 41.658924
-19.321371736679065 -45.19771333127992 88.895875
-16.364230916644825 -38.28019190031416 36.34085700000001
-15.181374210513239 -35.51318244341177 129.563449
-24.34851321038562 -56.95750462876005 47.91547400000001
-16.659945565825055 -38.971945370184784 131.596828
-22.57422909648295 -52.806992654696636 50.73092100000001
-21.68708514894222 -50.73173224508465 43.84871700000001
-16.068516267464585 -37.5884384304435 38.530649
-15.181374210513248 -35.51318244341179 122.212003
-20.799943091990894 -48.65647625805296 111.419455
-23.461371153434285 -54.88224864172834 69.65698500000002
-13.998517504381674 -32.746172986509436 33.212582
-20.79994309199089 -48.656476258052955 112.20152299999998
-24.052798561205375 -56.26575115888938 60.428574
-3.9442364475579725 -9.226594814129488 19.761
-14.885659561333009 -34.821428973541146 131.127587
-18.434229679727732 -43.12245734424822 86.706083
-15.181374210513248 -35.51318244341179 34.62030600000001
-9.562805329035609 -22.36988862877064 26.643205
-24.644227859565863 -57.64925809863071 49.479611
-12.815660798250091 -29.97916352960706 122.36841700000001
-18.13851503054749 -42.43070387437757 70.595467
-9.267090679855368 -21.678135158899984 25.079067
-24.939940618156708 -58.34100714592109 51.512989999999995
-24.052798561205375 -56.26575115888938 59.02085
-22.278514447302705 -52.11523918482597 45.569268
-20.799943091990883 -48.65647625805295 102.97311200000001
-20.504228442810646 -47.9647227881823 40.407614
-19.025658978088217 -44.50596428398954 42.910234
-17.842802271956643 -41.738954827087184 108.91683500000002
-14.589944912152763 -34.12967550367048 78.103327
-24.644227859565856 -57.649258098630696 54.484851000000006
-22.278514447302708 -52.115239184825974 62.461952
-24.348513210385615 -56.95750462876004 63.24402100000001
-8.675661381494884 -20.294628219158668 25.235481
-24.644227859565863 -57.64925809863071 53.702783
-19.617086385859313 -45.8894668011506 41.033269000000004
-25.531369916517185 -59.72451408566239 61.367056
-23.75708391202513 -55.57399768901872 50.574508
-19.61708638585931 -45.88946680115059 39.781959
-18.729944328907973 -43.81421081411887 118.145246
-22.574229096482945 -52.80699265469663 94.99601100000001
-15.477088859693483 -36.20493591328244 132.222483
-8.675661381494885 -20.29462821915867 29.615066000000002
-16.955658324415914 -39.6636944174752 97.18580400000002
-24.348513210385615 -56.95750462876004 48.541129
-20.79994309199089 -48.656476258052955 44.630785
-7.7885193245435405 -18.219372232126943 127.060829
-16.364230916644825 -38.280191900314165 120.960693
-22.57422909648295 -52.806992654696636 99.375596
-13.40708820602119 -31.362666046768123 131.909655
-15.477088859693486 -36.20493591328244 119.70938300000002
-21.687085148942224 -50.731732245084665 105.319319
-18.729944328907976 -43.81421081411888 39.938373000000006
-22.278514447302708 -52.115239184825974 91.242082
-24.34851321038562 -56.95750462876005 58.395195
-21.982799798122464 -51.42348571495532 44.787199000000015
-8.675661381494884 -20.294628219158668 126.435174
-18.729944328907976 -43.81421081411888 75.444293
-20.2085156842198 -47.27297374089191 94.21394300000001
-24.644227859565856 -57.649258098630696 58.551609
-15.47708885969349 -36.20493591328245 36.184443
-21.09565774117113 -49.348229727923616 113.765661
-24.34851321038562 -56.95750462876005 59.95933200000001
-9.56280532903561 -22.369888628770642 126.591588
-11.928518741298761 -27.903907542575364 30.084307000000003
-19.61708638585931 -45.88946680115059 101.096148
-16.659945565825065 -38.97194537018481 124.714623
-17.5470876227764 -41.04720135721652 120.022211
-14.589944912152763 -34.12967550367048 33.681823
-19.321371736679072 -45.197713331279935 74.349397
-18.13851503054749 -42.43070387437757 122.68124399999999
-17.842802271956643 -41.738954827087184 43.06664800000001
-14.589944912152767 -34.129675503670484 124.24538200000002
-21.391372390351375 -50.03998319779427 70.126226
-19.321371736679072 -45.19771333127994 112.04511
-17.842802271956643 -41.73895482708718 37.74858100000001
-23.75708391202513 -55.573997689018725 66.059469
-21.39137239035137 -50.039983197794264 110.79379999999999
-20.504228442810646 -47.96472278818229 97.342218
-10.449947385986937 -24.445144615802327 127.686484
-20.208515684219794 -47.2729737408919 106.101387
-23.461371153434285 -54.88224864172834 48.697543
-16.659945565825065 -38.97194537018481 35.402374
-20.208515684219797 -47.272973740891906 116.268281
-25.531369916517193 -59.7245140856624 59.64650499999999
-16.068516267464588 -37.58843843044351 83.734222
-16.659945565825065 -38.97194537018481 38.06140800000001
-21.09565774117113 -49.348229727923616 106.883456
-5.718520561460639 -13.377106788192894 22.420032999999997
-18.729944328907973 -43.81421081411887 107.509111
-16.955658324415914 -39.6636944174752 89.99077200000002
-20.504228442810643 -47.964722788182286 117.20676300000001
-17.25137297359616 -40.35544788734586 38.217822
-19.025658978088217 -44.50596428398954 85.45477300000002
-24.64422785956586 -57.6492580986307 46.976992
-16.955658324415914 -39.663694417475206 39.156304
-13.702802855201421 -32.05441951663875 122.05558899999998
-21.095657741171127 -49.34822972792361 112.67076500000002
-21.68708514894222 -50.73173224508466 103.28594
-23.16565650425404 -54.190495171857684 67.623606
-3.6485217983777285 -8.534841344258826 17.571207
-5.718520561460638 -13.377106788192892 27.738101
-11.632804092118512 -27.21215407270469 128.468553
-20.79994309199089 -48.656476258052955 68.40567500000002
-16.65994556582507 -38.97194537018482 120.335038
-5.718520561460638 -13.377106788192892 20.543069
-19.61708638585931 -45.88946680115059 87.175324
-21.391372390351375 -50.03998319779427 103.442354
-20.79994309199089 -48.656476258052955 74.66222500000002
-25.531369916517193 -59.7245140856624 49.63602499999999
-16.659945565825065 -38.97194537018481 38.84347700000001
-21.687085148942217 -50.73173224508464 105.78856
-5.422805912280396 -12.685353318322237 20.699482
-18.72994432890798 -43.81421081411889 42.753820000000005
-16.659945565825065 -38.97194537018481 38.999891
-11.632804092118521 -27.21215407270471 31.648444000000005
-13.70280285520143 -32.054419516638774 77.008431
-20.504228442810643 -47.964722788182286 103.75518100000001
-20.799943091990887 -48.65647625805295 55.266920000000006
-21.391372390351368 -50.03998319779426 92.49339200000001
-16.659945565825062 -38.971945370184805 81.85725700000002
-18.729944328907973 -43.81421081411887 85.924014
-16.955658324415914 -39.6636944174752 133.317379
-7.492804675363304 -17.5276187622563 127.217243
-19.321371736679072 -45.197713331279935 86.080428
-24.348513210385615 -56.95750462876004 53.233541
-24.939940618156708 -58.34100714592109 53.85919599999999
-14.885659561333005 -34.82142897354114 34.933133000000005
-8.971376030675128 -20.98638168902933 26.173963
-8.08423397372379 -18.91112570199762 28.363756000000002
-18.138515030547495 -42.43070387437758 90.616427
-13.998517504381674 -32.746172986509436 79.19822300000001
-17.842802271956643 -41.738954827087184 89.83435799999998
-17.25137297359616 -40.35544788734586 83.10856700000001
-14.885659561333009 -34.821428973541146 80.605947
-23.16565650425404 -54.190495171857684 63.087607000000006
-18.434229679727736 -43.12245734424823 87.95739300000001
-14.29423215356191 -33.43792645638008 124.401796
-5.127093153689548 -11.993604271031849 23.202102
-8.675661381494885 -20.29462821915867 28.676583
-16.36423091664482 -38.28019190031415 108.447594
-22.57422909648295 -52.806992654696636 99.84483800000001
-10.74566203516719 -25.13689808567301 126.904416
-6.309949859821123 -14.760613727934212 22.889275
-19.617086385859313 -45.8894668011506 89.208703
-20.799943091990883 -48.65647625805295 113.452833
-9.858518087626454 -23.061637676061018 122.994072
-22.574229096482945 -52.80699265469663 52.7643
-17.251372973596155 -40.35544788734585 75.13146600000002
-15.772801618284333 -36.89668496057283 121.74276200000001
-14.885659561333005 -34.82142897354114 129.876277
-6.605662618411975 -15.452362775224604 21.168724000000005
-21.982799798122464 -51.42348571495531 104.850077
-13.111375447430342 -30.670916999477736 125.49669200000001
-21.68708514894222 -50.73173224508466 44.474372
-17.251372973596162 -40.355447887345875 124.088968
-21.391372390351375 -50.03998319779427 103.911595
-15.772801618284342 -36.89668496057285 36.028029
-16.65994556582506 -38.9719453701848 83.26498100000002
-25.235655267336945 -59.03276061579173 57.925954
-17.842802271956643 -41.73895482708718 70.75188100000001
-15.47708885969349 -36.20493591328245 32.117686000000006
-19.32137173667907 -45.19771333127993 105.006491
-16.659945565825065 -38.97194537018481 123.932554
-12.815660798250095 -29.979163529607067 126.278761
-20.799943091990887 -48.65647625805295 93.27546000000001
-19.91280103503955 -46.58122027102124 95.308839
-9.267090679855368 -21.678135158899984 26.486791
-20.799943091990894 -48.65647625805296 117.832418
-21.68708514894222 -50.73173224508465 101.56538900000001
-20.208515684219794 -47.2729737408919 72.628846
-15.181374210513248 -35.51318244341179 80.918774
-21.095657741171127 -49.3482297279236 109.073249
-20.504228442810643 -47.964722788182286 108.60400700000001
-13.111375447430339 -30.670916999477733 30.553548
-6.901377267592216 -16.14411624509526 18.978931000000003
-22.57422909648295 -52.806992654696636 92.64980500000001
-15.477088859693483 -36.20493591328244 80.136706
-11.632804092118523 -27.212154072704713 30.866376000000002
-7.78851932454355 -18.219372232126965 23.358516
-21.095657741171127 -49.34822972792361 109.229662
-8.08423397372379 -18.91112570199762 24.766240000000007
-5.718520561460639 -13.377106788192894 18.196862000000003
-19.61708638585931 -45.88946680115059 109.855317
-21.98279979812246 -51.423485714955305 68.874916
-21.982799798122464 -51.42348571495532 105.475732
-15.477088859693483 -36.20493591328244 79.823878
-19.321371736679076 -45.19771333127995 112.827178
-14.589944912152763 -34.12967550367048 43.37947499999999
-19.61708638585931 -45.88946680115059 88.27022
-12.8156607982501 -29.97916352960708 128.93779400000003
-21.095657741171127 -49.34822972792361 106.57062900000001
-5.718520561460639 -13.377106788192894 19.135345
-18.434229679727736 -43.122457344248225 85.7676
-14.88565956133301 -34.82142897354115 80.762361
-11.928518741298753 -27.903907542575343 124.55820899999999
-17.842802271956643 -41.73895482708718 97.02939
-6.605662618411973 -15.4523627752246 22.576447
-15.772801618284346 -36.896684960572856 76.226362
-4.8313785045093045 -11.301850801161189 18.822517000000005
-6.901377267592215 -16.144116245095258 22.732861
-15.77280161828434 -36.89668496057284 82.326498
-14.294232153561916 -33.4379264563801 81.388016
-19.912801035039553 -46.58122027102125 110.324559
-3.057092500017245 -7.151334404517514 19.448172
-14.885659561333009 -34.821428973541146 118.30165999999998
-21.391372390351368 -50.03998319779426 112.983592
-24.93994061815671 -58.3410071459211 51.669404
-18.72994432890798 -43.81421081411889 87.331738
-5.127093153689545 -11.993604271031844 20.073827
-7.1970919167724565 -16.835869714965913 24.296998000000002
-15.181374210513248 -35.51318244341179 38.68706300000001
-8.675661381494884 -20.294628219158668 25.704722
-19.32137173667907 -45.19771333127993 110.16814500000001
-14.88565956133301 -34.82142897354115 130.189104
-15.181374210513244 -35.513182443411786 86.54966900000001
-10.449947385986944 -24.445144615802345 29.145825
-14.589944912152761 -34.12967550367047 130.345518
-3.0570925000172453 -7.151334404517515 16.632725000000004
-16.659945565825065 -38.97194537018481 37.904994
-22.278514447302708 -52.115239184825974 97.967873
-15.477088859693486 -36.20493591328244 84.51629
-9.562805329035612 -22.369888628770646 123.150486
-5.71852056146064 -13.377106788192895 19.291759
-5.422805912280396 -12.685353318322237 21.325137000000005
-21.982799798122468 -51.423485714955326 101.252561
-11.041374793758033 -25.828647132963386 29.77148
-19.025658978088217 -44.50596428398954 40.094787
-7.492804675363307 -17.527618762256306 27.894515
-17.842802271956646 -41.73895482708719 76.69560300000002
-13.111375447430337 -30.670916999477726 31.335617
-6.901377267592216 -16.14411624509526 23.51493
-5.71852056146064 -13.377106788192897 21.637965000000005
-8.675661381494884 -20.294628219158668 25.548307999999995
-21.68708514894222 -50.73173224508465 106.25780100000001
-5.4228059122803955 -12.685353318322235 27.581687
-14.589944912152768 -34.12967550367049 81.075188
-5.4228059122803955 -12.685353318322235 20.855896
-5.127093153689547 -11.993604271031847 22.26362
-6.605662618411968 -15.452362775224588 127.999312
-4.535663855329063 -10.610097331290532 18.50969
-9.267090679855368 -21.678135158899984 29.458652
-7.492804675363307 -17.527618762256306 24.609825999999998
-7.197091916772451 -16.835869714965902 126.74800200000001
-3.6485217983777285 -8.534841344258826 18.040449
-8.379948622904033 -19.602879171868278 26.956032000000004
-6.014235210640882 -14.068860258063554 21.481551
-10.154232736806701 -23.753391145931687 127.842898
-5.71852056146064 -13.377106788192895 20.386655
-6.605662618411973 -15.4523627752246 26.330377000000002
-5.127093153689546 -11.993604271031845 21.950792
-7.492804675363306 -17.527618762256303 28.050928
-5.127093153689547 -11.993604271031847 18.353276000000005
-6.901377267592216 -16.14411624509526 23.671343
-4.831378504509305 -11.30185080116119 19.917414000000004
-3.944236447557971 -9.226594814129486 22.107206000000005
-3.648521798377729 -8.534841344258828 19.604586
-4.8313785045093045 -11.301850801161189 18.666104
-3.057092500017244 -7.151334404517511 17.414794000000004
-3.352807149197486 -7.843087874388169 17.884035
-3.057092500017244 -7.151334404517511 17.101966
-74.9385634243516 14.012839233976317 76.695603
-63.84619556666832 11.938665932392414 13.191622000000004
-71.24110589586068 13.321447838763609 33.36899600000001
-60.14873803817744 11.247274537179711 12.409554000000005
-80.11500112756518 14.980786656841572 38.217822000000005
-77.15703605033036 14.427673717482252 85.45477300000002
-61.62772294068954 11.523831448886476 117.206763
-59.40924558692139 11.108996081326328 11.158244
-80.85449357882125 15.119065112694958 39.625545
-81.59398603007729 15.257343568548338 55.11050600000001
-77.15703605033035 14.42767371748225 100.470493
-83.0729662048 15.533899596200891 51.82581800000001
-66.80416064390316 12.491778871751738 16.789139000000002
-45.358912652003305 8.48170984038311 8.499210000000001
-71.98059834711675 13.459726294616994 32.27409900000001
-83.07296620480001 15.533899596200893 52.451473000000014
-49.056370180494184 9.173101235595812 26.799618
-64.58568801792437 12.076944388245796 100.31407900000002
-71.24110589586068 13.321447838763609 113.29642000000001
-56.45128523747596 10.555884026021221 114.704143
-80.11500112756518 14.980786656841572 51.20016300000001
-77.8965285015864 14.565952173335633 80.449533
-52.01433525772902 9.726214174955135 5.370934999999999
-66.80416064390316 12.491778871751738 131.59682800000002
-71.24110589586068 13.321447838763609 126.12234700000002
-47.57739000577148 8.89654520794326 21.481551
-46.09840510325937 8.619988296236494 119.55297
-79.37551340409851 14.8425090850424 50.730921000000016
-67.54365309515921 12.63005732760512 106.570629
-59.40924558692139 11.108996081326328 72.31601800000001
-74.19907097309553 13.87456077812293 64.02609000000001
-81.59398603007729 15.257343568548338 44.474372
-74.93856342435159 14.012839233976313 103.28594
-60.888230489433504 11.385552993033096 3.3375569999999986
-77.89652850158639 14.56595217333563 87.644565
-77.8965285015864 14.565952173335633 79.041809
-62.36721066415622 11.66210902068565 3.963211000000003
-69.76212572113799 13.044891811111059 127.68648400000001
-60.888230489433504 11.385552993033096 15.694242000000004
-80.11500112756517 14.980786656841568 86.706083
-72.72009079837281 13.598004750470379 129.876277
-70.50161817239403 13.18317026696444 104.22442200000002
-74.9385634243516 14.012839233976317 99.53201000000001
-80.1150011275652 14.980786656841573 87.95739300000001
-49.79586263175024 9.311379691449195 21.168724000000005
-72.72009079837281 13.598004750470379 104.850077
-80.85449357882125 15.119065112694958 65.90305500000001
-75.67805587560763 14.151117689829695 78.10332700000001
-66.06466819264708 12.353500415898347 113.765661
-79.3755134040985 14.842509085042398 45.569268000000015
-71.98059834711675 13.459726294616994 126.74800200000001
-80.85449357882125 15.119065112694958 86.54966900000001
-57.930265412198665 10.832440053673773 9.75052000000001
-66.06466819264712 12.353500415898356 17.258380000000002
-86.03093128203483 16.08701253556021 56.51823000000001
-79.37551340409851 14.8425090850424 84.829118
-79.37551340409851 14.8425090850424 85.61118700000002
-81.59398603007729 15.257343568548338 47.759060000000005
-65.32517574139104 12.215221960044968 123.463313
-80.11500112756515 14.980786656841566 93.119047
-78.63602095284246 14.704230629189016 61.367056000000005
-83.07296620480001 15.533899596200893 54.17202399999999
-58.66975786345473 10.970718509527158 73.56732800000002
-78.63602095284246 14.704230629189016 93.74470100000002
-77.15703605033035 14.42767371748225 41.815338000000004
-63.84619556666832 11.938665932392414 73.09808699999999
-52.014335257729 9.726214174955132 128.937794
-81.59398603007729 15.257343568548338 43.84871700000001
-79.37551340409851 14.8425090850424 58.23878100000001
-77.15703605033035 14.42767371748225 100.001251
-80.11500112756518 14.980786656841572 62.149125000000005
-62.367210664156225 11.66210902068565 14.912174000000004
-80.85449357882125 15.119065112694958 45.88209500000001
-69.76212572113798 13.044891811111055 112.98359200000002
