ply
format ascii 1.0
element vertex 858
property float32 x
property float32 y
property float32 z
element face 0
property list uint8 int32 vertex_indices
end_header
12.52470982180013 3.243209773520485 98.75203298206766
7.528645294188441 1.9495043275957986 743.4962301217589
7.528370063237011 1.9494330579436985 570.4534584211648
8.981454988785915 2.325701993459696 298.0303441965238
7.527223525162897 1.9491361677529806 346.2326980343304
7.528394103623098 1.949439283079149 580.9866952304978
7.501709951366806 1.942529557853812 88.7035369507576
7.528405640992654 1.9494422706221926 586.2533060684196
7.526552592558724 1.9489624331746802 295.81381088014496
7.528383961833 1.9494366569142927 576.4724563679218
7.471560815612397 1.9347225928116598 60.724123746147875
7.510634209716588 1.9448404490691165 108.32126665652864
7.503458386224695 1.9429823061489941 91.72322126997094
7.5284942915279105 1.9494652262264713 632.1477074262228
8.23203237909028 2.1316428282699684 106.0040497589338
9.707139948368487 2.5136144151366038 262.6268938285211
38.02096605063144 9.8453353769098 94.34835945039711
37.226087166600124 9.639505541158368 170.70387576113006
7.503037323127816 1.9428732740060946 90.96836250332301
7.517489489129591 1.946615588733731 136.96401006893444
37.203510644688386 9.633659465875347 168.39752032721168
7.490349273622814 1.9395877682541043 74.34879433959834
7.528346516441345 1.949426960620972 560.6725613334895
11.075614608536357 2.8679739536663087 85.28695101563595
7.525471364706717 1.9486824547331094 246.8944299450626
8.880961006324 2.2996795888900357 58.247932744816815
7.515494215539273 1.9460989228068526 126.41428299831098
7.528399086479654 1.9494405733644578 583.2438172107444
7.528303738513153 1.9494158834944935 544.1202060182382
7.528495586276312 1.9494655614949707 632.9000715983858
8.256488228370285 2.1379755457966136 584.7385269043682
7.528574883002948 1.9494860949781807 684.812824437958
7.526565182256912 1.9489656932128598 296.5663682567355
7.4895649759808105 1.9393846783770463 73.59264397769158
8.976999298993555 2.3245482152973302 206.94046457094262
7.528307788874894 1.9494169323150228 545.6249673366544
8.974497255599607 2.323900323912661 182.08732635394944
7.527045862552853 1.949090162925605 330.43022750914366
7.514477594418413 1.9458356739490303 121.89206395983555
7.525405310254948 1.9486653502694846 244.63642763335108
7.528387368831837 1.9494375391392769 577.9772017281448
7.4378332333578046 1.925989007286595 47.81569266156098
7.528646090295969 1.9495045337437855 744.2485744264862
7.527199633958818 1.9491299812474512 343.9752260218342
7.497630489507772 1.941473201997256 82.66193811582166
7.528643694693622 1.9495039134147674 741.9915316531627
8.981475899564023 2.3257074081991105 298.7830011057098
8.982002908890685 2.325843874578235 319.85669953435956
7.527231385580989 1.9491382031681834 346.9851887283773
7.525598184504647 1.9487152940734194 251.41038148489355
7.5149996834772255 1.9459708662498725 124.15324873736114
7.511609829176552 1.945093080755823 111.33760546803003
7.525291071846048 1.94863576881574 240.87304248506817
7.525659074252714 1.9487310611633442 253.66832692779374
7.528335227499586 1.94942403740704 556.1582936155945
7.517232528031324 1.9465490499669915 135.45706831949602
7.515332312035937 1.946056998719839 125.66061953540351
7.479106685299776 1.9366765573080844 65.269369805275
7.527081657572663 1.949099431863548 333.4402507654544
7.524316113348695 1.9483833082819326 214.52755448370817
7.52403998599236 1.9483118065103513 208.50520938727126
7.5221576893700774 1.9478243953935346 177.63659148161844
7.525757025786718 1.9487564252138436 257.4315328628708
7.500767871279489 1.942285611016712 87.19342763471292
5.24038744227689 -10.252920570548374 172.91890829896667
5.5894230666707285 -10.93581559932642 300.93804534063645
3.53126252251175 -6.908984222230765 110.58355531679109
3.5217365160687906 -6.890346404227796 75.10486517907779
4.9085209959798 -9.60361737466944 684.0214195673905
4.906650358280038 -9.599957435406704 333.360221375631
3.5149923312643225 -6.87715127469301 63.75476019184301
3.5345837145104824 -6.915482199362728 142.9912828124723
4.223805302123045 -8.263957721666577 571.9367519766495
3.5393681907548173 -6.924843120753596 716.4116502913756
3.5393893813168815 -6.924884580502914 757.7908259028209
15.60386325145033 -30.52926377544847 182.26718880996413
5.554732894883358 -10.867943599434739 100.35646657781228
3.533560938801838 -6.913481118675905 130.18236315136235
3.497967898965757 -6.843842639780315 48.57663471086955
5.24827143082743 -10.268345748415122 322.0448754496866
3.52792330626841 -6.902450980311542 93.23281293607687
3.4953520765326966 -6.8387247320057005 47.05448912589532
3.8805285983498488 -7.592330133768796 307.83552727700516
3.531796886345145 -6.910029715526808 114.35357521037595
5.589400773760645 -10.935771982811632 300.1851369323748
4.561567314159065 -8.924795707273468 206.15386143639617
3.8815428810265002 -7.594314597672341 574.2051180906632
4.223973391134478 -8.264286591106476 691.566266537697
3.5392437383192448 -6.924599627128211 562.1773189531987
18.13703546737889 -35.48546478301192 170.3982519578025
3.533274622061876 -6.9129209343717495 127.16793060990753
17.49731156014876 -34.23383244090754 169.9352151563115
3.8606258018887805 -7.553389923050623 78.81131263563672
3.539386877054473 -6.92487968086451 752.5243950702618
16.893022523510716 -33.051529116477944 126.0499572925457
16.570385537891134 -32.420283541009304 179.57391705419084
18.217433671784384 -35.642765443099385 86.68658521446058
18.10677761983892 -35.42626471223846 92.5198263191245
5.2459829798213296 -10.2638683492431 246.00096170538913
4.223968594568134 -8.264277206530567 687.0520261131038
3.5210099387422367 -6.888924841471307 73.59264397769158
4.564595456017896 -8.930720326072542 321.3403219054579
3.536332493275407 -6.918903719235015 177.63659148161844
3.881718206398354 -7.594657625193 759.2877887638164
3.5346866001447808 -6.915683497119417 144.49798492537934
3.539238473790894 -6.9245893269754815 557.6630486707235
4.906169053162951 -9.599015752527329 304.7568931589949
16.25161589885706 -31.79660450480837 181.24035545306018
14.297095584314583 -27.972547264906986 183.52302771619298
5.2484580522797994 -10.268710876938345 331.83069409039
18.54959501529777 -36.29264561115232 88.84027393523682
13.96973533552671 -27.33206053262852 184.40137512165757
4.906253993164241 -9.599181939301891 309.2733972680911
17.575638825219254 -34.38708126766359 64.65109085843697
3.5327219109863126 -6.911839544337399 121.89206395983555
4.218450142040218 -8.25348024617901 171.5412344253828
3.533046247172979 -6.912474114432965 124.90694475717666
5.539130371295773 -10.837416956737856 84.43070731802582
4.9069052143831975 -9.600456066359358 352.17682544370416
18.331936151186078 -35.86679178454225 90.68374376129265
4.906154528102345 -9.598987333962038 304.0041332310971
4.218977790647023 -8.254512601002835 179.8275850244091
3.83041385979024 -7.494279667171574 49.98638258446974
3.5393522075516093 -6.924811849303771 689.3269549305905
66.42559641118787 -129.96297914172945 671.3786591429138
18.78471907188554 -36.75267042858683 87.79125626672625
19.056764305069922 -37.284932250476835 130.15734574965248
17.670303693027726 -34.57229493385771 86.37887749990063
4.2183983517546455 -8.253378917471897 170.78787627817616
3.539300131021648 -6.924709960553911 618.6051537680066
3.539370681004893 -6.924847992976596 720.9257521962292
3.5392428697045566 -6.924597927666578 561.4249402357847
4.56433505435654 -8.93021084512677 303.2760217355164
4.534575248707748 -8.871985203058697 81.67688286280935
3.523970645661494 -6.894717522491591 80.39546884276115
3.8708554111585607 -7.5734043537518065 109.77662065310584
3.5387394264329135 -6.92361293105463 351.50010703106614
3.8815285663260193 -7.594286590680751 564.4240557486436
4.892934514501854 -9.573122118673966 129.22429090382926
4.526278642157188 -8.855752730001129 72.57969166453239
4.564585475278802 -8.93070079856121 320.5876614756917
3.536132294134115 -6.91851202569774 172.36548740871405
4.564737146334838 -8.930997545950122 332.630019260216
3.538508979631829 -6.923162057379109 310.8647070719819
3.879628326075041 -7.590568733447322 240.84873228485722
3.5393854222955277 -6.924876834600168 749.5150112096389
3.514412703492048 -6.87601722161486 62.99728365989453
5.590021400359381 -10.936986250895988 323.5239698779404
18.044676151259438 -35.30476197381057 90.12802496101149
4.901358516721129 -9.589603843850153 187.28312833752025
25.78229163715991 -50.44355807548072 166.61264690963384
3.8815262976201 -7.5942821519132275 562.9192762821233
3.881359377484323 -7.5939555694014205 477.14499637248156
26.388968528889286 -51.63053328512015 167.7657179380385
3.8593688236115757 -7.550930620455722 76.5418578751585
4.555205760899078 -8.912349203842489 137.57892229857916
3.538503840608006 -6.923152002778442 310.11217192865075
3.534367946431191 -6.915060044893616 139.97774027326543
3.5334202774617016 -6.913205912011577 128.67517455882157
4.221451829486776 -8.259353106402834 245.33917584521134
3.539349357757207 -6.924806273625261 684.812824437958
4.906065071209193 -9.598812309800165 299.4875359658869
3.5387464679535383 -6.923626707927515 353.0050769377259
3.519417374377751 -6.885808958130157 70.56725465116624
3.8610216107891966 -7.554164330909161 79.56764617622203
3.8673180862080008 -7.5664835082704744 95.43632686185194
3.520238161869346 -6.88741484491798 72.08011020381342
3.5372509025333354 -6.920700604918854 210.01081881880657
17.80514890319331 -34.836122226090495 104.87133279937204
5.243768061519131 -10.259534818245088 207.58577414902356
3.881712534635828 -7.594646528278637 750.2595343945303
15.599678075567965 -30.521075396942432 180.73888757934478
17.989417140560732 -35.196646638114174 116.67104326842816
3.5379004885749636 -6.9219715327198825 247.6470946328281
5.930992995479199 -11.604103848608899 302.4138099675558
5.248444280374951 -10.268683931937032 331.07794983649444
3.5319962990195206 -6.910419870326173 115.86143293148926
3.5392530674607974 -6.924617879776204 570.4534584211648
3.537183170952302 -6.920568086755244 206.99959043435516
5.2482863899465775 -10.268375016224445 322.797644286855
3.534423182182211 -6.915168114721296 140.7311394239601
3.539241997592009 -6.9245962213613135 560.6725613334895
4.564634687827723 -8.930797083876126 324.35094258994343
3.536359659193453 -6.918956869885233 178.38958401641347
3.496689703787575 -6.841341825903496 47.81569266156098
3.5393820842030967 -6.92487030355701 742.7438809274032
3.5393120786143606 -6.924733336252834 632.9000715983858
3.536464973051188 -6.91916291850859 181.40149300116818
21.93038626490353 -42.907229843640316 174.57762576591043
4.22383092188132 -8.264007847224947 586.2323695171532
4.566174468731638 -8.933809695343843 633.6220976996318
3.8817177414710518 -7.5946567155536355 758.5354335316114
3.530671163016072 -6.907827215806218 106.81295168894684
3.8799978942442213 -7.59129180080174 262.6776402341143
3.527140716994767 -6.900919829084574 90.21346207804572
3.5373157896961893 -6.920827557922638 213.02199107522682
3.5372673846897644 -6.920732852580417 210.76361825466657
4.903060132903409 -9.592933089206655 212.14375894389812
3.539390789036369 -6.924887334733636 760.8002112287122
3.5393872380243563 -6.92488038710915 753.2767432478012
3.536490491449885 -6.919212845754964 182.15445289862419
4.2227444921207145 -8.26188222613993 330.39311419110743
3.53936985612785 -6.924846379088521 719.4210535169702
5.206891086384927 -10.187384294815697 85.28695101563595
3.522083948949458 -6.891026163457112 75.86086830338789
4.881781574497415 -9.551301173323422 99.00488245445322
18.166343207427822 -35.542805949888205 131.52353422855748
3.539351736473747 -6.924810927630716 688.5745992985379
15.933713292694593 -31.17462183538614 52.725273703158614
3.5104640294950977 -6.868291563675315 58.44976755050623
3.53319984703226 -6.912774635563168 126.41428299831098
3.539263582452623 -6.92463845256346 580.2343257144083
3.53937109151166 -6.924848796141117 721.6781038096891
16.255024156963245 -31.803272828483202 123.31044882265634
3.539270556308088 -6.924652097048136 587.0056742676968
3.539227552364998 -6.924567958992014 548.6344923735284
3.5277347276372844 -6.902082022529789 92.47803936926852
3.5392994791385513 -6.924708685131876 617.8527870530793
3.5392894080513413 -6.924688980852687 606.567288631965
3.525319472325154 -6.897356528251811 84.17263837755681
4.55413559907942 -8.910255411302252 131.54471972302682
4.904990701311807 -9.596710284073513 257.3279771404433
3.539349836634594 -6.92480721055824 685.5651805745638
3.537283691540491 -6.920764757252943 211.51640940759538
3.5384162563698385 -6.922980642502689 298.0714744563101
3.53939043867273 -6.924886649240321 760.0478638067984
17.82658770930904 -34.878067669753435 172.09032534033727
3.539261999379041 -6.924635355249021 578.7295765588132
3.5392823755686336 -6.924675221662663 599.0436015920591
3.532372790918396 -6.911156484093216 118.87690057859685
4.223803900210762 -8.263954978797763 571.184347355311
3.5392488775789044 -6.9246096821902965 566.6915777960478
3.537217402497234 -6.920635061442719 208.50520938727126
3.5131904528849756 -6.873625864386095 61.481972110365575
3.539284513047558 -6.924679403682004 601.3007121626061
3.5393702692112026 -6.924847187294183 720.1734004954131
3.525064051795472 -6.896856792987621 83.41731745466413
3.539288716569204 -6.924687627954355 605.8149196348636
4.222637978766474 -8.26167383067819 319.85669953435956
3.539382459610881 -6.9248710380496865 743.4962301217589
3.539268258581519 -6.924647601501143 584.7485595617995
3.509716659732591 -6.866829320111033 57.69135856761623
3.5387534200493955 -6.923640309839093 354.5100390637413
3.5384104268744805 -6.922969236980955 297.3189195714356
3.5386514957002477 -6.923440892855611 334.1927555656757
3.538482905848022 -6.923111043510899 307.10202514484473
3.5198341499858032 -6.886624387762446 71.3237269110519
3.5393669278857502 -6.924840649925555 714.1545933309684
3.5392674867463394 -6.924646091390512 583.9961860633388
3.5269327659129828 -6.900512968724043 89.4585237972877
3.539240242803621 -6.924592788083496 559.1678077814519
3.526719559952148 -6.900095827089825 88.7035369507576
3.53189756355131 -6.9102266924506415 115.10751452050133
3.539326617621937 -6.924761782105645 651.7091062518081
3.5014792341959584 -6.85071263586522 50.85804004471397
3.531033256274366 -6.908535658351223 109.07538880609658
-6.569133465869981 -5.439605555244809 635.9002961500698
-7.725453074610718 -6.3971020956978215 344.6719993631127
-7.727717899636411 -6.3989774959854575 656.193965416361
-8.303265084187672 -6.875562372614377 311.53162537950146
-8.881613441780233 -7.35446677532932 310.75309641840994
-5.984340519597658 -4.955364676940531 170.8593992469985
-5.989880150491611 -4.9599517974704 678.0416290119903
-5.987274899147629 -4.957794505377438 240.87304248506817
-6.569199305449249 -5.439660074055091 676.5282422407064
-27.503742118596403 -22.77461847831769 181.24035545306018
-11.144120867632807 -9.227947962215268 134.92999304322475
-5.989877628919966 -4.959949709469723 675.7845571825484
-8.282738558625912 -6.858565275043483 134.506954613777
-7.148302869648484 -5.919189829577122 593.0039452675866
-23.6319097657247 -19.5685273119437 181.35410659437287
-5.987583552375699 -4.958050087308111 254.4209729981802
-5.9648114773816765 -4.939193550706213 81.90650375914932
-7.142182987737092 -5.914122229137033 205.43439580644952
-5.982328915457977 -4.953698957540854 147.5112672109895
-10.037114823537365 -8.311285778620302 297.14290560022425
-5.989004229614161 -4.959226486575792 371.81692816100554
-29.13844835646733 -24.12824558589822 90.04838086633487
-10.604853363826798 -8.781404666252916 214.23939811864295
-25.302642969621346 -20.951986738436656 182.51903546013375
-29.75668818649299 -24.640182332404223 93.78794096421183
-9.426938983104526 -7.806026461156415 129.85316528989338
-6.56896574173166 -5.439466670388944 558.4049229400273
-5.98981079204931 -4.959894364847057 623.1193415519832
-5.981362184331571 -4.95289845074145 139.22432458173085
-113.47870850992945 -93.96664208752978 668.01393794259
-8.85474564110249 -7.33221875150956 130.67316756739973
-7.724659755920103 -6.396445183978952 307.79219672570264
-26.222260131531808 -21.713480571469034 547.6758843500689
-6.569251468304058 -5.439703267781671 714.8987386281586
-5.976009628889485 -4.9484662390245155 109.82948646949298
-5.953900280659527 -4.930158476809094 68.29731133470291
-49.166519992237646 -40.71259575883981 582.2134598509492
-7.148428925539186 -5.919294210821146 643.4140601093967
-28.601614289365394 -23.683717310011588 126.82784891173115
-9.459407614777378 -7.832912282572049 301.6909507770719
-5.98994983543448 -4.96000950045426 751.0197032944982
-7.148524527566896 -5.919373374583571 691.566266537697
-9.451560754569694 -7.826414648660559 210.55888162308526
-6.568941460107745 -5.43944656386241 549.3761964616865
-6.569119852184187 -5.439594282360606 628.3765529919124
-6.569236019533077 -5.439690475345516 702.8609678842718
-8.303866333054525 -6.876060239904365 333.360221375631
-8.857862266489489 -7.334799489571409 137.46738467986506
-27.725327708535076 -22.958103592793588 71.09057633251314
-9.465200109785219 -7.8377087885628445 633.584078081539
-8.783848208040283 -7.273511758762122 72.37448696706377
-7.147053387833359 -5.91815518958114 375.5465892870854
-6.569137456407756 -5.439608859630624 638.1574141639725
-7.147045007310899 -5.91814825004539 374.79405964233024
-7.720167223248389 -6.392725118645352 209.91956094355166
-8.303809587784226 -6.876013251684509 331.1021625735857
-6.569145311768721 -5.439615364303633 642.6716509275645
-8.303549741128782 -6.875798084293283 321.31705111813494
-8.883420842342531 -7.355963402881541 373.9815182165376
-10.028273217559859 -8.303964440236419 212.0232101025708
-6.568994486035977 -5.439490472261483 569.6907842499752
-8.881133505287506 -7.35406936138948 298.70793763500205
-8.875456885744203 -7.349368806687221 216.62614274382187
-5.963365866344357 -4.937996504875102 79.63986032712668
-5.989809712632817 -4.959893471030546 622.366975658965
-8.302744328096216 -6.8751311577908805 295.7236378492927
-24.751383390723856 -20.49551334155225 183.40384697945385
-5.989679844845386 -4.959785933325364 547.8821150211618
-8.307051408921799 -6.878697658746822 690.7929901621271
-6.569077468607583 -5.439559186416834 606.5576165972839
-8.882284539856727 -7.355022481625132 330.3252036102603
-10.02814488891346 -8.30385817702507 211.26955002122662
-6.569083586241137 -5.4395642521555105 609.5671340318826
-6.529954751250145 -5.407163414313945 75.02848032423013
-44.04985619409095 -36.47571535972422 163.26252622584965
-6.532917102295058 -5.409616404694519 78.05490401254919
-6.564177960591165 -5.435502123006182 203.2066848651798
-5.9899570903055075 -4.960015507888413 760.0478638067984
-8.304297643798163 -6.876417389036639 352.17682544370416
-109.69053661920888 -90.82982640734222 670.5661039472013
-5.989817187260128 -4.959899660435047 627.6335292766978
-75.21292683293383 -62.28046008690209 618.8548410363982
-7.724355945516856 -6.396193612174873 296.50163437253303
-8.306871498549816 -6.878548683016008 634.362686932556
-9.45980174160251 -7.833238641364818 309.97270615093475
-5.989699909545938 -4.959802548006304 557.6630486707235
-5.989892389115007 -4.959961931726944 689.3269549305905
-5.989734302118931 -4.95983102695746 575.7200810268859
-7.147118658931171 -5.918209237657359 381.56678566398597
-5.989851892365371 -4.959928398180178 653.9661839678266
-5.989833584348908 -4.959913238130748 639.6713337735961
-8.882354462607365 -7.3550803815269665 332.5834315727813
-8.885671449222553 -7.35782702975879 562.115524022265
-6.568992622797872 -5.43948892939736 568.9383985451559
-10.028400194993823 -8.304069584569195 212.77686073416865
-8.885919964632144 -7.358032814252224 605.7575714309596
-5.989829572107286 -4.959909915772948 636.6618857220263
-5.989840471131593 -4.959918940767412 644.9378618644491
-6.564776991348722 -5.435998153579088 215.25314875210586
-7.148242422017668 -5.919139775598146 572.6891515386754
-10.00271363874359 -8.282799696417305 135.82964805791082
-5.984827890985566 -4.955768247384472 178.38958401641347
-44.0297591603453 -36.45907390511308 162.4764779143731
-8.303570571903697 -6.875815333326132 322.0697640696846
-6.564490363740438 -5.435760810078851 209.2300531960901
-7.720045632981791 -6.39262443518488 208.41329709945666
-6.56914401403623 -5.439614289709411 641.9192777056634
-5.989811867564145 -4.959895255432779 623.8717073097482
-8.304705525180623 -6.876755137363025 373.2503598012837
-5.937058510489904 -4.916212560342209 56.17407993679001
-5.9898891844213695 -4.959959278063504 686.3175366095945
-113.49522970277431 -93.98032254825495 670.3177864001856
-6.5691857068651025 -5.439648813675887 667.4998437802171
-7.1395165289415425 -5.911914253891521 174.55457254124704
-31.180053913376106 -25.818807817078113 127.42780901578821
-6.569018051937071 -5.439509986129967 579.4718274520854
-5.989739723538197 -4.9598355161922285 578.7295765588132
-10.028894964657308 -8.304479281194181 215.79136589609985
-5.948666472897435 -4.925824594733828 63.75476019184301
-5.967374386757527 -4.941315781309518 86.4383076980131
-5.989869910531933 -4.9599433182178725 669.0133503591528
-50.875061252882126 -42.12736234579571 582.7338432042884
-8.304860072711593 -6.876883111259794 382.28157515594444
-7.1484015451582374 -5.919271538352535 631.375902350934
-7.727733532204144 -6.3989904406154805 662.2131007257512
-5.988564966130976 -4.958862752135663 319.8950318192076
-31.954397727663864 -26.46000728969551 90.99368604822486
-44.18421894491544 -36.58697514301226 168.7589179183544
-6.564414796073196 -5.435698235874101 207.724240013497
-8.881101567865997 -7.354042915439439 297.9550920420141
-7.725016414191342 -6.396740516738384 322.84563787559097
-30.178991092243713 -24.98987247708656 128.59733303370345
-5.989704391241287 -4.959806259097735 559.9201870557463
-7.688353302772895 -6.366381434283978 95.29882543485766
-8.30694903580589 -6.878612888149161 656.9349586028723
-5.938424146192084 -4.917343382175958 56.93280118196715
-5.9717538057272295 -4.944942182246583 96.25154279510423
-8.881556492798744 -7.354419618425341 309.24748402924644
-6.568977446962763 -5.439476362967191 562.9192762821233
-6.5659085536730935 -5.436935149719862 245.36523411901015
-7.72765964309706 -6.398929256351307 635.1268924085415
-31.09688655904643 -25.74994065141963 92.27972767660209
-6.563262016024852 -5.434743670285271 188.14690002269091
-23.618656759119425 -19.557553090042397 177.54334955927504
-5.986039980849999 -4.956771924778801 202.4826347646389
-7.727578151281846 -6.398861776624636 608.7928157945589
-8.300452053358791 -6.87323302762491 246.786477754822
-6.569261644903067 -5.439711694568064 723.1746887255262
-5.989794180364295 -4.959880609453813 611.8338579162868
-5.989920852244177 -4.959985500770923 717.9163496760881
-9.430763484603423 -7.809193359759941 136.65077763243104
-10.037253132191035 -8.311400305829217 299.40188699181357
-5.98994860074079 -4.960008478059648 749.5150112096389
-8.303002440489134 -6.87534488911689 303.25137107753983
-5.985415123888338 -4.956254508681603 188.93089208478915
-6.519690526390988 -5.398664068874514 66.69814414652967
-6.568996341921483 -5.439492009037249 570.4431745522484
-7.148483757829422 -5.919339614987788 669.7473761532649
-7.727482526997065 -6.398782594432127 581.7060264679969
-6.56229168551616 -5.433940182998413 175.34426089839587
-5.9883939465619465 -4.958721138481048 304.8444044591019
-5.989958274435234 -4.9600164884132685 761.5525537663184
-5.974548269521919 -4.9472561527056245 104.55027528645469
-5.989954700829351 -4.960013529270101 757.0384781813568
-5.989950450005546 -4.960010009353066 751.7720516258911
-7.72590282198755 -6.397474511381287 372.5178340213354
-5.978812472485991 -4.950787148422575 122.64580623624812
-6.569170338771212 -5.439636088044821 657.7190608553927
-7.148510908810509 -5.9193620975006365 684.042528025643
-6.562416826292078 -5.434043806476822 176.85055168853103
-7.148256407858625 -5.919151356647391 577.2035677885484
-5.974089392309561 -4.946876177013779 103.0416914562753
-75.77428737544281 -62.745297639890175 619.5059413383964
-6.5691751401515335 -5.439640063853077 660.7285360768497
-5.989927789044682 -4.959991244825105 725.4398557661589
-7.62628169585354 -6.314982713345252 58.89660770997205
-7.146050560852617 -5.917324793419494 308.5673728531125
-25.740468693572378 -21.314530634462933 67.287957080113
-7.685724999498372 -6.364205053918555 92.27369972411984
-6.568971629667851 -5.439471545925509 560.6620982105097
-6.569058558053356 -5.439543527432836 597.5290471946884
-5.98610185122156 -4.956823156865742 203.98830345033062
-5.989765606042046 -4.959856948335822 593.7770145265148
-5.989787275042665 -4.959874891465878 607.3196574824435
-5.984493400624471 -4.955491270879756 173.11851715571115
-5.9708620538464645 -4.944203762406324 93.9875525518493
-5.989918728435753 -4.959983742140174 715.6592980606317
-7.145894382681506 -5.917195469262572 301.0409566391649
-5.979731200744749 -4.951547906194671 127.92156264620517
-5.9617938003169515 -4.936694747323621 77.37266506539042
-6.565690728797265 -5.436754778684508 238.5904463333801
-5.968143263535742 -4.941952453774129 87.94850527275307
-5.986602287203245 -4.9572375455153495 217.53864688531684
-5.988867253780771 -4.959113063015727 353.0050769377259
-5.989915865246564 -4.959981371261291 712.6498930518593
-6.569053695518068 -5.439539500984887 595.2719019428987
-8.284085241704314 -6.85968040305732 138.27953136587354
-8.830071931847085 -7.31178755664474 98.16867120280688
-5.989859247585813 -4.959934488709194 659.9850559646464
-26.137077983573533 -21.64294504533779 85.88487861725666
-5.958850489383767 -4.934257523207815 73.59264397769158
-7.146277982930496 -5.917513111468541 320.6093060505206
-5.989947358586107 -4.960007449486923 748.0103140038369
-6.5693014407329535 -5.439744647714541 758.5354335316114
-7.725559443983966 -6.397190175417411 350.69285990076446
-9.428278490155785 -7.807135647023193 132.11933290061273
-5.988540852293844 -4.9588427845458565 317.6374657831833
-5.989732933456489 -4.959829893629318 574.9677103245468
-6.541986610125384 -5.417126458407615 90.14942938331905
-8.829197119797469 -7.311063163920858 97.41156766603726
-7.724522199427237 -6.39633127960075 302.5233232003348
-8.307203681539448 -6.878823748889635 752.4888925183242
-6.569216611746005 -5.439674404625243 688.5660785004582
-5.966143813386356 -4.940296798550112 84.17263837755681
-5.989812939196106 -4.959896142803267 624.624072932748
-5.989919438603625 -4.959984330198419 716.4116502913756
-10.037298544866433 -8.311437910034194 300.15486915308696
-6.567873249691014 -5.438562026602327 353.74098327461434
-7.7204600773635725 -6.392967618037411 213.6851150549524
-8.882422978872004 -7.355137116780663 334.84164683489337
-5.9897729926855785 -4.959863064884892 598.2912359083339
-5.987293416837584 -4.9578098390481085 241.62572504974293
-5.989893183747421 -4.9599625897265 690.0793104627215
-5.93973808631642 -4.918431397214278 57.69135856761623
-8.294910580809672 -6.868644382102783 187.28312833752025
-5.988227342336698 -4.958583180975101 292.05100971236044
-5.9898955521198625 -4.95996455086977 692.3363716528148
-5.9796068676595615 -4.951444951528823 127.16793060990753
-5.987645621596301 -4.9581014840530475 257.4315328628708
-5.989750316422738 -4.959844287686048 584.7485595617995
-5.97520085248804 -4.947796527466803 106.81295168894684
-7.111000339067515 -5.88830127271842 87.05514888437585
-5.989791895605038 -4.95987871754688 610.3291266188554
-5.988855336924711 -4.959103195200321 351.50010703106614
-5.989857427666698 -4.959932981715588 658.4803362513219
-5.9898672853415444 -4.959941144415148 666.7562746537373
-5.964342806011256 -4.938805464910214 81.15101290291916
-5.989713193913424 -4.959813548196747 564.4344491933698
-5.98995768325031 -4.960015998879479 760.8002112287122
-5.989885118805627 -4.959955911508982 682.5557602253681
-5.973852387078022 -4.946679923583886 102.28735402782314
-5.98496239493931 -4.955879624091581 180.64852286267717
-5.984543046813285 -4.955532380667808 173.87154547981464
-5.988268497473272 -4.958617259702637 295.0612522434267
-5.988663804534225 -4.9589445957958915 329.677718245422
-6.561163288183345 -5.433005807645561 163.2928113987592
-5.9874355439243 -4.957927528130613 247.6470946328281
-5.989749010192276 -4.9598432060550355 583.9961860633388
-8.300405810718331 -6.8731947361629935 246.03348738780625
-5.989956495597643 -4.960015015437435 759.2955163103306
-5.983959254637985 -4.955048968483177 165.58789138698944
-11.747046522910415 -9.727203725686554 186.23040377713744
-5.989850958642142 -4.959927625005743 653.2138232433526
-5.989874227281546 -4.959946892725119 672.7751314003378
-5.951414802959984 -4.92810036391306 66.02650548827437
-5.98860404145363 -4.958895108662332 323.65762042670815
-8.303828631400787 -6.876029020851474 331.8548521542115
-5.966564786528417 -4.94064538757697 84.92791192441267
-5.989841441231213 -4.9599197440635105 645.6902239031783
-5.9888790192970625 -4.959122805513442 354.5100390637413
-5.989869038422681 -4.959942596063215 668.2609919004716
-7.144227079775116 -5.915814850311992 244.58635172729095
-7.146209687353828 -5.9174565589566805 316.8462447491185
-5.988706525618157 -4.958979971214384 334.1927555656757
-6.569014504095357 -5.439507048320954 577.9670516230891
-5.989769320331998 -4.959860023973173 596.0341235077507
-44.59890562887182 -36.93035863513566 577.5146336190929
-5.989952282692407 -4.960011526919072 754.0290913487586
-6.504895619088669 -5.386413067982363 58.35302314738808
-5.9705504630229616 -4.943945747984285 93.23281293607687
-7.7275756662786295 -6.398859718904638 608.0404082009476
-5.989735665436653 -4.9598321558598775 576.4724563679218
-5.989917301362296 -4.959982560444484 714.1545933309684
-5.989922956120207 -4.959987242896546 720.1734004954131
-6.569268829504446 -5.439717643815064 729.1935544624641
-5.957544357598645 -4.933175973905896 72.08011020381342
-6.56108436184645 -5.4329404522767195 162.53952376228105
-5.989903281927772 -4.959970951577909 699.8599041940175
-5.988806103601394 -4.959062427287717 345.48020655350814
-5.989770549079025 -4.959861041443618 596.7864944616974
-5.98824807797596 -4.9586003512303725 293.55613596229585
-5.949614018879996 -4.926609215173856 64.51212097288278
-5.975813648142391 -4.948303956134976 109.07538880609658
-5.989796448340832 -4.959882487463727 613.3385934523365
-5.98509196400943 -4.955986914442321 182.90741224942624
-5.973610141308187 -4.946479330698664 101.53299185316884
-5.982165244929426 -4.953563429297904 146.00464917133618
-5.987630308445322 -4.95808880391775 256.678894600118
-5.989858339183587 -4.959933736501947 659.2326961651003
-5.9789509139072985 -4.950901785570432 123.399535998174
-5.988237750071789 -4.958591799154943 292.80357348696936
-5.989842407940449 -4.959920544552183 646.4425810102728
-5.9876148602402886 -4.958076011950232 255.92625441112668
-5.979973428136242 -4.951748483861611 129.42877624742312
-20.825635531533216 -17.24477715628649 177.34440703546213
-5.989875081967708 -4.959947600452495 673.5274892087167
-5.987452588214443 -4.95794164174481 248.3997571766974
-5.989730179941223 -4.959827613566503 573.4629587824886
-5.9898234459898125 -4.9599048430091175 632.1477074262228
-5.989861055097136 -4.959935985428461 661.4897704125478
-9.108807418880383 7.07031271408782 300.9664535943396
-7.9257225082012575 6.1519948815599435 650.1748177735085
-6.143343396328688 4.768501179642797 656.2232606307234
-6.141213111779101 4.766847639586133 264.20518363003805
-10.294361347436636 7.990547013578406 297.89590283402407
-6.139462855876293 4.765489080117977 203.2354710413836
-10.28550463154408 7.983672375867831 213.53050201458703
-10.886867260678542 8.45045377183122 297.11052870034524
-7.914973676266406 6.143651571662641 180.54255949395846
-6.143440995955748 4.768576937077593 751.0197032944982
-29.599620434793522 22.9754086422455 83.6715497374056
-6.140697515008879 4.766447430180861 240.87304248506817
-6.143367804102948 4.768520125108295 676.5369145646056
-28.208519522822332 21.89562750162084 181.24035545306018
-8.495267326727852 6.59407909593522 135.26151917092528
-27.64900244861785 21.46132688447337 182.13753192322193
-6.7265185752983605 5.221165364183931 142.19691607445813
-49.839229872279354 38.68551879754586 579.2647449018606
-6.143201252081254 4.768390846397879 565.9392049826694
-9.109562715245971 7.070898979803073 320.5393313339786
-6.1433318036880635 4.768492181363371 647.1949428062918
-8.387745133089666 6.510619703528819 58.01331308224148
-7.325966183492029 5.686460309036567 217.48236810967535
-9.703160582337825 7.531653319394853 332.5577096096187
-7.923866277145862 6.150554063522224 371.76526319090436
-32.73242609935042 25.407111795280823 90.19369078986257
-6.735809528222733 5.228377059367103 323.63951015357696
-6.637208682271223 5.151842472270029 46.9366261977414
-7.922660758334794 6.149618332357318 310.05025654502896
-7.314834088062134 5.6778195076415034 130.84291704765496
-6.143312424334095 4.768477138988837 632.9000715983858
-7.331652929221445 5.6908743962802095 665.2331097437924
-9.70313189369609 7.531631051093519 331.8049140738201
-33.01033227081708 25.622824286179632 127.02776506034046
-8.515661561096563 6.60990922691947 300.24030468630394
-6.737361985077545 5.229582085989567 585.4909131214274
-28.489401829990655 22.113650087477485 80.16526953347125
-7.331465575397373 5.690728971081997 589.2419626171317
-46.32509402852072 35.9578247984765 574.4192965715439
-6.734319940311156 5.22722083200762 250.63436209445595
-8.519820302884106 6.613137268043067 659.1921729927379
-10.875830382258785 8.441886878468946 210.47036601090204
-6.143360802881191 4.7685146907166205 670.5180621389454
-6.73754591090771 5.229724850357686 684.8042568598449
-8.516651100087817 6.610677313211035 333.360221375631
-6.735422874597501 5.228076936429302 298.8044170085281
-9.093762374368032 7.058634657388629 163.87121757500495
-8.515765070463505 6.609989571530951 303.25137107753983
-8.496095843256656 6.59472219559449 137.5250625181082
-13.223741091558889 10.264349707697136 185.35291079153683
-9.701527873709177 7.530386000848673 296.4205591537937
-8.51973047430203 6.613067542541502 633.6102778726739
-7.329558246328472 5.689248490449829 329.6405204323965
-7.925825545441241 6.152074859703555 690.8038325087207
-21.945988703402474 17.03461230624705 181.79989727052433
-7.92392122495075 6.150596714348577 375.528102093245
-6.143311367809076 4.7684763189075765 632.1477074262228
-6.139734766205609 4.765700138599075 210.01081881880657
-7.875551451924541 6.11305179705283 85.46321831432157
-9.111056567507344 7.072058517177269 373.9815182165376
-9.69397652266046 7.524524595411818 212.06590524316093
-6.1432085535388286 4.768396513834453 569.7010816894087
-7.3152273715480804 5.6781247767182395 132.35105595504027
-7.331029647315171 5.690390601005621 480.89378498132857
-6.737292029551895 5.229527786077441 557.6525291290895
-7.3144271025292005 5.677503602951063 129.3346924664542
-32.51228382476707 25.236235998777687 128.0110137018495
-6.141706142778856 4.767230333300656 294.3086923369412
-6.143368666160812 4.768520794242946 677.2892718409689
-6.719546984695404 5.215753972394559 112.03981160949873
-9.109915215127259 7.071172592393369 331.07794983649444
-6.111544735932811 4.743818862567797 73.59264397769158
-9.70773129536382 7.5352011351443835 631.3267414343479
-7.300635242879395 5.66679827610105 96.88141262108344
-8.519549429712686 6.6129270146103485 589.9698869698541
-32.46234101154708 25.19747007794433 125.66427771675865
-8.517498065344382 6.611334732887015 372.49774965168973
-6.143215711838295 4.7684020701508185 573.4629587824886
-6.737526704261068 5.229709942039647 672.0140477500632
-6.737520844372119 5.229705393557565 668.252212238466
-6.736157553966001 5.228647199103767 352.2359490114825
-6.142165826596051 4.767587142725612 334.1927555656757
-7.331431280220988 5.690702350953755 577.9559656348958
-6.73639127896858 5.228828617897836 376.3161337565141
-6.731444176363719 5.224988646226841 188.14690002269091
-7.327757236724787 5.68785053564482 256.6311578410507
-7.27432775281534 5.646378239435209 71.15617307826186
-6.126931053989569 4.75576181790509 102.28735402782314
-6.132299660044989 4.7599289631640715 124.15324873736114
-7.925537325171103 6.151851141345411 592.2398202430842
-10.285113918565292 7.983369102034666 211.26955002122662
-8.47051126341211 6.574863286316801 95.97869668602502
-6.138710200772438 4.764904864566435 187.42505456068696
-7.331512451817651 5.690765356849644 605.7946585936692
-6.679210999383614 5.184444930862505 62.14844818859814
-6.14321429144974 4.7684009676364285 572.7105827515659
-9.084173364989086 7.051191608940054 135.957758062033
-47.498225022575696 36.86841633929282 577.2973904838573
-9.081260593570857 7.048930697731321 129.9181052921316
-9.096580801098844 7.060822337666871 175.93435487727106
-6.141726925968735 4.767246465341315 295.81381088014496
-9.101990004991611 7.065020995218557 209.09257516026912
-7.8564261078804 6.098206586594619 72.57969166453239
-6.1432309742881355 4.76841391695888 581.739069389894
-6.737334848395503 5.229561022328954 574.2051180906632
-7.3314588742212585 5.690723769587608 586.9847645290301
-6.143270669275184 4.768444728453591 605.0625504905923
-8.517511796329453 6.611345390962639 373.2503598012837
-116.40352025600282 90.35313311429705 670.3177864001856
-6.737629322322318 5.2297895948141315 750.2595343945303
-8.50543218332293 6.601969120558211 174.47234484881457
-6.737310001850366 5.229541736286786 564.4240557486436
-7.275511024674659 5.647296702378427 71.91422235190458
-6.143435884481669 4.768572969519766 745.0009234617983
-6.143273074215097 4.768446595182842 606.567288631965
-6.7344715041484475 5.227338476796506 255.90336825089256
-6.139525613669861 4.765537793105897 204.74113203389874
-8.515914689197666 6.610105706518744 307.76790612644385
-6.14334808681318 4.7685048204259015 659.9850559646464
-6.143349940641587 4.768506259378988 661.4897704125478
-6.735756669964436 5.228336030459751 319.87670907237856
-30.4408979073329 23.628413425049654 129.56614932136992
-6.138140649925514 4.764462775672779 177.63659148161844
-6.142280826487031 4.767676406352993 346.9851887283773
-6.737503898594213 5.229692240139837 657.7190608553927
-8.510850709676154 6.606175014261423 216.66303449492892
-6.737535878059905 5.229717062799103 678.0329759228517
-8.507678462104531 6.603712696055925 188.7900867138773
-6.141845237769573 4.767338299693631 304.8444044591019
-6.143359022994973 4.768513309157918 669.0133503591528
-6.7373758273142 5.229592830419361 591.5099862426658
-48.0839299549617 37.323044134098225 577.9794004944664
-6.734450424446592 5.227322114601415 255.15066369660633
-7.9231327482244085 6.149984693831877 330.3721083879801
-7.92552055482269 6.151838124097141 587.7253422735514
-6.112805882567613 4.744797772393894 75.10486517907779
-6.115653500397707 4.74700811098413 78.88419053740562
-6.143341497467904 4.768499705735301 654.7185445752879
-7.327327146287433 5.687516696784518 245.33917584521134
-9.694405883845905 7.5248578682222735 215.07985710698006
-6.1433754604486825 4.768526068011257 683.3081166687134
-7.9255317777268415 6.151846835384829 590.7349937085821
-7.316843134119843 5.679378941630147 139.1367617256797
-6.123217196075446 4.75287909839846 92.47803936926852
-6.1434352368141285 4.76857246679621 744.2485744264862
-6.143211433831409 4.768398749535388 571.2058349766733
-6.143332788281779 4.76849294561111 647.9473044815886
-9.701686789110981 7.530509351967449 299.4322303436098
-8.510638454517824 6.606010260493387 214.40342264873075
-6.7375630304889675 5.2297381386826505 696.8420717202027
-30.85675991107691 23.951208087091015 90.36877966497627
-9.102802872399998 7.065651947933669 215.87281763034716
-7.325094457034933 5.68578366956343 203.92831059277208
-9.688623408231807 7.520369474849448 182.67182328169463
-6.142491697778186 4.7678400859547585 374.8267864236016
-6.735598283004653 5.228213089520943 309.3406906222172
-9.708024111657942 7.5354284209647995 691.5213801805611
-6.143361688343178 4.768515378017696 671.2704202708354
-10.285375766808386 7.983572350262142 212.77686073416865
-7.923538467597429 6.1502996157211545 351.44546292385473
-6.143168933418165 4.768365760451494 550.139256105155
-6.143359914434364 4.768514001098692 669.7657038984916
-6.14333474721031 4.768494466143563 649.4520226616299
-6.128737398649669 4.757163913813919 108.32126665652864
-6.7353556359408735 5.228024745367731 295.04139179390387
-6.090594972143655 4.727557526207936 56.93280118196715
-6.735487624083177 5.228127195380968 302.56740547871533
-6.118581607092064 4.7492809255291375 83.41731745466413
-12.04806203272863 9.351780343226357 186.23040377713744
-6.737480878272584 5.229674371623663 644.1763921169508
-9.11003313400262 7.0712641217544965 334.84164683489337
-7.323032867284919 5.684183450835506 179.8275850244091
-30.747488364027035 23.86639083573565 87.97610273981736
-6.137524825160003 4.763984768677021 168.6002229565503
-8.505564195431042 6.602071589173858 175.22600761718502
-7.925540083060612 6.151853282036322 592.9922283064112
-6.737508823008859 5.229696062500975 660.7285360768497
-6.143219939645911 4.768405351801266 575.7200810268859
-6.143386126064428 4.768534346728233 693.0887267885079
-7.331374619169737 5.690658370294967 560.6506703846395
-52.17872362198927 40.501448330628044 582.7338432042884
-6.139430952198715 4.7654643162859145 202.4826347646389
-6.737319710099115 5.229549271889572 568.1860078164449
-6.123544518849427 4.753133168362185 93.23281293607687
-6.106467679187673 4.739878019688531 68.29731133470291
-6.121075635399395 4.751216805742619 87.94850527275307
-6.143196800881564 4.768387391349121 563.6820710261698
-6.735474867370276 5.228117293541434 301.81480969616126
-6.143226876561764 4.7684107362783 579.4819512206822
-28.565952563726785 22.17306924095365 81.76252232451883
-6.1433517818714165 4.768507688552981 662.994489218231
-6.1433308156555695 4.768491414446432 646.4425810102728
-6.138414893091059 4.764675644915804 182.15445289862419
-6.141169149947202 4.766813516140031 261.9473132913431
-7.3253537326401625 5.6859849208934685 207.69349112271357
-8.452951050390269 6.561232940248328 82.34617449380559
-6.142312281023457 4.767700821558911 350.74762095213663
-6.737493844383266 5.229684435999052 651.7001037420141
-6.14337462097737 4.768525416408426 682.5557602253681
-6.142068564950572 4.767511647634214 324.4101371573176
-6.1433877270693324 4.768535589438152 694.5934319552775
-6.14339168442188 4.768538661159701 698.3552003835805
-116.94736105096004 90.77526570643593 668.6340627307338
-6.1433145261151765 4.768478770404325 634.404794745842
-6.119456710262391 4.749960186027991 84.92791192441267
-6.125903352714091 4.754964109812235 99.26970686461586
-6.133085811246896 4.760539178594307 128.67517455882157
-6.143378790773631 4.7685286530301 686.3175366095945
-6.143388523680516 4.7685362077726845 695.3457867970146
-6.136993998924782 4.763572738066728 161.82231474376545
-6.142274412323196 4.7676714276393115 346.2326980343304
-6.143385321643011 4.768533722331348 692.3363716528148
-6.143436530190432 4.768573470722906 745.7532724179487
-6.126428609967266 4.7553718177441855 100.77859463800539
-9.097047072319505 7.0611842602751835 178.19580733465483
-6.143442254701198 4.768577914123605 752.5243950702618
-6.14299021404465 4.768227037367263 481.6717058065527
-6.143326828822216 4.768488319841699 643.433137420584
-6.143357231055891 4.768511918243708 667.5086333321236
-6.132703202150606 4.76024219504491 126.41428299831098
-6.143382892581542 4.768531836878797 690.0793104627215
-6.126168917849183 4.755170243114293 100.02416653757459
-6.143434587184038 4.768571962549312 743.4962301217589
-6.143447826784143 4.768582239208884 759.2955163103306
-6.1419184562838725 4.76739513235775 310.8647070719819
-6.137895659553193 4.76427261262897 173.87154547981464
-6.1433443408744575 4.768501912805072 656.975620889556
-6.103918511663167 4.7378993400732945 66.02650548827437
-6.14332982417462 4.768490644852781 645.6902239031783
-6.064578092478568 4.707363063133036 46.29301763779898
-6.137296907830492 4.763807857834745 165.58789138698944
-46.681416444897486 36.2344044641747 162.62056004768647
-6.1434484367312665 4.768582712653618 760.0478638067984
-7.327296343396522 5.687492787389882 244.58635172729095
-6.143259621649905 4.768436153218451 598.2912359083339
-6.14325204572524 4.76843027273882 593.7770145265148
-46.32628051550142 35.95874575701685 575.9312188153352
-6.113994575712775 4.74572044337275 76.61680093787875
-6.143382077586844 4.7685312042748675 689.3269549305905
-6.143328829216409 4.768489872560057 644.9378618644491
-7.322117008448548 5.683472555536338 171.5412344253828
-6.134534276836169 4.7616634865526155 138.4708969770583
-8.510038474081533 6.605544551964066 208.37751866092296
-6.137117667413288 4.763668730313176 163.32856947728249
-6.14340092586474 4.768545834424865 707.3834319961758
-7.329166550779663 5.6889444539397305 308.5673728531125
-6.143413427864899 4.768555538554792 720.1734004954131
-6.143258370904114 4.768435182381824 597.5388652616986
-6.729210720271071 5.223255023779684 162.53952376228105
-6.143269460072718 4.76844378986315 604.3101860087174
-6.128527938748023 4.757001329741429 107.5671195163478
-6.138234364224137 4.764535517291586 179.1425660326046
-6.124176162079219 4.753623453747855 94.74225429268186
-6.1433720858406025 4.768523448619572 680.298695086461
-6.091942581697633 4.728603549087217 57.69135856761623
-6.1406589929530915 4.766417529122656 239.3676751586197
-6.142336726098633 4.7677197959776105 353.75755596417
-6.120287056321121 4.750604705779717 86.4383076980131
-6.084645409545914 4.722939438883916 53.896905009888755
-6.1432185359117915 4.768404262214151 574.9677103245468
-6.143255855193063 4.768433229671331 596.0341235077507
-6.126682600724619 4.755568966942582 101.53299185316884
-6.143181570293719 4.768375569272538 556.1582936155945
-6.142992600207947 4.768228889521987 482.4241091983074
-6.103010687351417 4.737194681221882 65.269369805275
-6.143233679730613 4.7684160169400815 583.2438172107444
-6.143411270077504 4.768553863666857 717.9163496760881
-6.1423306733828404 4.767715097822138 353.0050769377259
-6.142044853906088 4.767493242974682 322.15258888161696
-6.143429984006124 4.768568389534116 738.2297888851317
-6.102071582883161 4.736465742519324 64.51212097288278
-6.141183929682199 4.766824988261841 262.6999385297237
-6.096853197522057 4.732415199493335 60.724123746147875
-6.143386927866012 4.768534969091586 693.8410770158733
-6.140826832923495 4.766547807546835 246.14176790583605
3.3158471365794573 7.026054113659501 165.58789138698944
3.638606432206582 7.709959065653798 264.1830118991424
4.9157825379156135 10.416208196499257 186.48685867761893
5.876307591880643 12.451495327873412 213.48561546951927
3.3190339115538574 7.032806672657528 562.929697486472
3.6253131189720866 7.681791440824223 90.90484473885705
3.311109454590216 7.016015288388425 107.5671195163478
3.3190524476469316 7.0328459493755515 580.9866952304978
26.92704461641262 57.05657251467969 579.2647449018606
4.27798517955261 9.0647590588197 211.4257967155504
15.949387776959385 33.79566577856649 82.07298997559656
3.958982769955682 8.388814692298665 254.37281441327218
4.2782354645068175 9.065289395581216 217.45052644356133
3.2890714883545384 6.969318339781017 55.415193637069045
4.9241363568297905 10.433909369481336 718.6203522078268
3.3190943138380042 7.032934660981332 629.1382542475706
3.960997498036419 8.393083763801812 569.6795373617697
3.318492963612497 7.03166044083437 337.2027612668683
13.084567391462667 27.725306613825637 176.01850818608168
12.788949633385156 27.098912730254185 182.99238511186607
3.6400124596649204 7.712938342019887 558.4049229400273
4.280240298095427 9.069537501329835 296.50163437253303
3.3164747964558132 7.027384082163658 182.90741224942624
3.317132842405664 7.028778436686795 208.50520938727126
3.3049772188141615 7.003021498679312 81.15101290291916
14.39360615802175 30.499070551631885 58.687822887933564
3.61008447510631 7.649522982276109 63.66554975706274
