ply
format ascii 1.0
element vertex 862
property float32 x
property float32 y
property float32 z
element face 0
property list uint8 int32 vertex_indices
end_header
-18.11611724940894 -2.598531035121884 599.5770313788653
-11.420030275881977 -1.6380608871848101 606.5100114930044
-16.628664334846285 -2.385174469332398 604.1346458498365
-153.91939966921436 -22.07781785916802 645.4022167861041
-19.602990097114613 -2.811804397556614 589.7461652091988
-16.62894505679872 -2.3852147353946895 618.4336638475862
-12.908611306843982 -1.8515792671994185 615.510529491045
-12.908373572263967 -1.8515451671394672 590.6787957286515
-12.164245727269966 -1.744809310184337 598.9712988408968
-20.347008585499893 -2.91852456867036 604.7762554086826
-16.628873075626828 -2.38520441059349 614.6707860567279
-12.164463676801812 -1.7448405723259313 627.5645168072227
-15.140459637759557 -2.1717100697177294 583.1015199335889
-11.419959831118137 -1.6380507827621802 595.9758351574305
-140.86072681085835 -20.204714134303966 754.9030991866864
-10.675994337783056 -1.531338213127313 669.7258175420303
-10.675607909752244 -1.5312827848466786 589.2174616640724
-9.931299376729605 -1.4245210104477812 598.2591063584437
-10.675535838631347 -1.5312724471434165 577.1785564260017
-11.420064142463804 -1.6380657449235143 611.7770733438733
-12.908684318621992 -1.8515897398282095 623.7876744378802
-12.908597714031217 -1.8515773174799868 614.0055863553721
-18.863298380737668 -2.7057048479143866 766.6301418804536
-12.164300144980151 -1.7448171157260448 605.7434241859534
-7.698007241285213 -1.1041831121801369 628.385889423032
-15.14040785226196 -2.1717026417340826 580.091291492105
-138.73836746481993 -19.90028816087736 756.0501438677179
-65.53069622060093 -9.399560928980605 735.424626130748
-114.73003404637952 -16.456592217067616 657.1042260022161
-17.371935151945298 -2.4917873963267407 581.535501388808
-9.187107214381054 -1.3177759279704493 671.2521335833512
-9.186897754570804 -1.3177458835735152 600.527903538736
-12.908303419858646 -1.8515351046520199 583.906422042286
-11.41986358687216 -1.638036977725666 582.4318012443159
-12.909613775863045 -1.851723058875191 770.5126554278136
-13.652577130199958 -1.9582918841716666 596.6824803034124
-138.03716026126955 -19.799708734536093 757.7038319426944
-11.419901805915735 -1.6380424597707146 587.698938852274
-7.69792328556736 -1.1041710697796925 586.2533060684196
-16.628109148642892 -2.385094834797032 578.5462904247224
-7.698196887164712 -1.104210314515868 771.3330481895631
-13.652585906088763 -1.958293142963443 597.4349819081159
-12.90827145133663 -1.8515305191663187 580.8964667962063
-7.698003168710652 -1.1041825280201183 626.1287989663059
-52.2512923554861 -7.494796094642595 735.7074943992486
-7.697986429219293 -1.1041801269488947 617.1004201994123
-7.697939597386929 -1.1041734095067324 593.7770145265148
-15.141055433225723 -2.171795529145271 621.4810889622338
-12.908535291814495 -1.8515683637916662 607.233336859591
-7.6978976071644984 -1.1041673865331196 574.9677103245468
-8.442448823875937 -1.2109639708798874 602.0433327369469
-7.6978940683959385 -1.1041668789409131 573.4629587824886
-7.697958371336635 -1.1041761023956276 602.8054469793706
-12.90835045684717 -1.8515418515212743 588.4213435103146
-9.931348372179464 -1.4245280382338839 609.5452231469242
-13.65273016944611 -1.9583138357424827 610.2274176852351
-7.697890501682078 -1.104166367340302 571.9582113566295
-12.164077670272095 -1.7447852045043712 579.4072104493572
-9.186970036031472 -1.3177562514473937 622.3472530708084
-14.396871094199177 -2.0650515688258912 612.4682538738991
-7.69800180137697 -1.1041823318931578 625.3764336113792
-7.698079195460654 -1.1041934331090322 672.7751314003378
-7.698000429109716 -1.1041821350585383 624.624072932748
-9.931192605142355 -1.4245056953954818 575.6866929648177
-7.697892288546241 -1.1041666236436762 572.7105827515659
-7.697888707743575 -1.1041661100222016 571.2058349766733
-9.18680828353654 -1.3177330500697306 576.451164889646
-6.474454560239989 17.11858782429945 619.1454826436834
-61.612575518712674 162.90488647112687 648.6290624603278
-4.347286273406872 11.494312173522845 624.554728281959
-4.613168830611161 12.197310992049148 595.9461703197796
-6.739867941986693 17.820346133497754 584.5010323805066
-3.549203685016809 9.384165789254592 592.2398202430842
-5.145107417345319 13.603767293412837 613.2207661024834
-36.87514335236197 97.49861924857524 633.8343927625735
-48.81318789052041 129.06304864960399 752.6103270754194
-3.549265222828326 9.384328496463542 633.6220976996318
-2.7511144903256377 7.274001937793594 675.7845571825484
-5.676867867270014 15.009752597476421 607.9169895593631
-41.881929073250355 110.73666119991134 729.9019810321516
-6.740053721207339 17.82083733748644 601.0599853056698
-4.613101819351321 12.19713381293296 577.8865040526833
-3.815250488671661 10.087598878693237 608.780514445962
-5.145097177787816 13.603740219817253 610.9632279234124
-5.676922787268531 15.009897807054955 616.9476533030625
-63.19171592614685 167.08016540776057 718.8995802981218
-3.815216500742424 10.087509013926066 591.4747462849803
-5.942805051436685 15.712895850787836 619.938807554691
-43.806120074427334 115.82426083288395 661.0773935601713
-2.751115648468211 7.274004999945805 678.0416290119903
-5.67689104593806 15.009813882340021 611.6797779226794
-65.41004952591777 172.94548397598066 641.1127403109106
-4.879126377041895 12.90050808359549 600.4449787163761
-65.19379943074917 172.37371438338974 644.4039130857353
-38.45871289244046 101.68560890083012 665.8949318021753
-6.208293951299263 16.414853831400446 578.5249519185253
-59.683143377435044 157.80342915851844 650.774274318507
-59.26539161818368 156.6988851211849 722.2099912704674
-5.942840032876768 15.712988342417626 625.20679773794
-4.081305375396006 10.79105333992988 631.3403162356647
-5.144980507164831 13.603431740348057 586.8825682928649
-2.751116414159595 7.274007024449196 679.5463382293703
-5.410890156825832 14.306502191873754 590.6270443963014
-4.613256305172267 12.197542276544661 622.2827398301246
-6.208513946889829 16.415435504158054 603.3615948689304
-50.08551057663712 132.42709537207108 754.2674572615155
-44.22554450915846 116.93322745776298 755.531489213139
-48.56223288851218 128.39951858666907 754.2622950474945
-5.942794892432413 15.71286899017661 618.4336638475862
-4.613138882873981 12.19723180963088 587.6688569344774
-4.347262496407552 11.494249306659349 615.5253302294914
-4.613207713354903 12.197413798804126 607.233336859591
-5.410954575845118 14.306672517053881 601.9152192932136
-43.97378579576459 116.26757236579091 758.6912139348794
-27.357046741468725 72.33258074483086 734.3854134172778
-5.676918302536897 15.00988594933449 616.1951049068313
-5.410849701680521 14.306395227657461 583.8540718373657
-4.61320011041351 12.197393696474464 604.9759082185562
-4.879216677803961 12.900746840623075 623.7722036850216
-5.145036949426121 13.60358097481992 598.1704489914658
-3.283168249231771 8.680762756691932 589.9943567129687
-4.6131134229571105 12.197164493099594 580.8964667962063
-37.43351304139056 98.97495991497857 667.1017166203139
-6.208383941009091 16.41509176599967 588.3091898307156
-47.33967631292074 125.16705445942667 659.9855366377171
-6.208713945232648 16.4159643037912 628.9499980920509
-4.613274772139185 12.197591103575895 628.3024595974787
-44.74079120794894 118.29555007233365 757.5868816662343
-3.2832084316476395 8.680868999806103 623.0996427600104
-3.815257498998198 10.087617414137325 612.5426194658639
-4.0811833937322435 10.79073081796225 579.4219996594402
-4.347310895493465 11.494377274814058 634.3365181766337
-6.2086287669350835 16.415739090662584 617.6610978016616
-45.57918164662415 120.51227122188831 661.6948428916386
-4.081316112245995 10.791081728376778 636.6073136248224
-2.751052381735037 7.2738377214332886 580.2343257144083
-4.879208380673422 12.900724902843375 621.5147499262171
-3.2831632476593735 8.680749532434113 586.2323695171532
-4.879224885424314 12.900768541736046 626.0296536332353
-3.815222625426983 10.087525207714986 594.4844564674252
-5.144972734147873 13.603411188335187 585.3775109732649
-3.283188248712974 8.6808156357217 605.7946585936692
-4.6131924219789715 12.197373368099207 602.7184806539743
-4.613270205203158 12.197579028505361 626.7975343107164
-3.8152241421118864 10.087529217860316 595.2368844645833
-5.145200843248276 13.60401431337567 635.0433739057049
-3.815228657850155 10.087541157562946 597.494161861124
-5.676745243452746 15.00942837764204 589.1028195036351
-5.94288373181281 15.713103883281725 631.9798859660721
-2.7510724558474076 7.2738907977893605 606.567288631965
-4.3471656574478335 11.493993262505926 582.4170883333269
-4.347246055106013 11.49420583552804 609.505703663366
-6.2084305675191676 16.415215047428283 593.5775662506095
-3.8152316400369233 10.087549042524627 598.9990103794815
-4.8790949523409175 12.900424996055293 592.9199698002894
-3.5492475092617215 9.38428166143786 620.8312858373473
-2.7510486611946265 7.273827884249758 575.7200810268859
-4.613272492781959 12.197585076909633 627.5499995453656
-2.751049287358193 7.273829539838797 576.4724563679218
-4.347218275445591 11.49413238554824 599.7237597817034
-3.0171588320003737 7.97742851770739 630.6336804652643
-2.7511542019436375 7.274106936108748 769.0760135818306
-6.474373985210112 17.118374782303004 610.1139578270073
-2.751091953330916 7.273942349527146 635.9095221907094
-2.751114877661002 7.2740029619160715 676.5369145646056
-2.7511152637066187 7.274003982628432 677.2892718409689
-2.7510782386060644 7.2739060875193315 614.8433236109876
-4.347307181611433 11.494367455235412 632.8316328549251
-4.347512564530648 11.494910491796636 736.6662929727366
-3.8152419029494857 10.087576177871457 604.265983060862
-2.7511424248910368 7.274075797345262 737.4774439364317
-3.5492110253826703 9.384185197329279 596.7542839689693
-2.751053602713572 7.273840949725046 581.739069389894
-5.411134756924173 14.307148919443826 637.2840243710921
-2.7510881748589755 7.273932359171487 629.8906189406981
-2.75104991107574 7.273831188960511 577.2248315381696
-2.7510777225400616 7.27390472303046 614.0909561972614
104.72552765308485 68.71791248559276 660.0559101440128
96.31821404052909 63.20127242644361 661.0378820334278
68.98646116123778 45.26695359771758 734.603355673902
10.902858575324569 7.154145681689279 589.9263105002539
130.0742408093784 85.35101705267454 652.3365192746251
110.65417864016187 72.60812463173878 653.3679321074317
7.7596737522533 5.091677203961897 636.6426056529276
44.765015806934805 29.373530098862283 761.2962802164604
62.7358668240291 41.16549138241027 669.5618464812355
100.88619230115756 66.19864983178638 755.445091611242
106.33812804587824 69.77605499534734 755.1857686082363
132.42677433510755 86.89468263797478 654.7837293669731
9.016974248991037 5.916682027896734 585.4553112588311
14.04502143307152 9.215943574839113 596.6087448427348
154.06858866620092 101.09542563313042 643.6270716157183
98.98260924321356 64.9495727737249 729.1407423571559
9.01695909227858 5.916672082493128 582.4455862638123
117.23398611973943 76.92560714709509 661.7912187701578
124.84715971660074 81.92115511606569 656.0382149983266
10.274240660645416 6.74166448616937 583.9220223856183
6.502166474497791 4.266536696204774 770.5807017886054
9.016935911965682 5.916656872231134 577.9309867947142
142.1730420178706 93.28990627345622 648.1146489119001
6.502169544675089 4.266538710767791 774.3424282721978
15.301962509280317 10.040712557246037 620.6507235908232
15.92940206752776 10.452420548792038 591.2752047734899
106.94506300937267 70.17430845503881 755.8312630531742
14.045414237194707 9.216201321732026 619.938807554691
14.673819141968973 9.628542746211096 625.9396393913553
17.81354759456721 11.688743251945343 600.2348470895969
10.902877950839665 7.154158395351178 592.1837648499616
17.186338839003866 11.27718670655581 622.8413255583384
6.501975815196011 4.266411590993964 608.824389935594
10.903054376492229 7.154274160846227 614.0055863553721
120.17089797760329 78.8527251721781 659.5346080777258
80.07376541955112 52.54212729030363 733.8224953969029
10.274338154930852 6.741728459146394 597.4663806293606
7.130750997461953 4.678995981031084 586.2432991424423
16.558686361451446 10.865339003418054 638.6705261126742
8.388343378108399 5.504192330884616 603.5259671433803
12.160359807850453 7.97928222273867 638.0533589277956
95.12979503929118 62.42146568062506 665.8494314089928
12.788710882590845 8.391588325480626 625.2437102856752
105.74180717295516 69.38476619998691 757.5868816662343
7.759558023135284 5.091601265806396 594.5087406062553
10.274481992098304 6.741822841004443 619.2875866199083
14.045600192894995 9.216323340573323 631.9798859660721
11.531346517121039 7.566541592700456 586.8999291930494
15.929618647125505 10.452562662163796 599.5546423294512
14.045473505021873 9.216240211594428 623.7016628968585
13.416707530342135 8.803661863313478 595.8759652914528
11.531784452301451 7.566828953309435 634.306941371739
12.788269678509062 8.391298819911547 590.6270443963014
9.645837922449685 6.329324483337509 621.5587225200575
7.130754688120669 4.678998402736359 587.7480657891294
16.55799784723289 10.864887219971589 611.5744364185517
12.159745442267345 7.978879093517741 581.6148504571134
9.645694237944689 6.32923020165222 595.223395262639
11.531525508577744 7.566659041803203 604.9599573211307
9.645883093542226 6.3293541233236095 630.5878910248539
8.388236771786389 5.50412237884837 576.4391118420886
13.417009048709572 8.803859711089952 616.1951049068313
12.16015791740074 7.979149747968038 617.735819513092
10.274273907059447 6.7416863015206125 588.4368243789502
27.233663139327582 17.86995513137718 736.8281950947892
12.160265043017214 7.979220040750542 628.2708801494665
14.045267506199984 9.21610504102683 610.9078918764451
14.044713499822254 9.215741517799643 580.0515140863221
108.16408458495764 70.97419573969964 758.645217815028
14.673486845162998 9.628324702498698 607.8772539424269
108.1554770534499 70.96854772235257 756.3588176295422
6.502072293540335 4.266474897339328 676.5369145646056
12.160272489776233 7.979224927101998 629.0233823456653
15.30178953890496 10.040599059005608 612.3718483663015
9.64581459017874 6.329309173364965 617.0441197971793
15.301262302813095 10.040253101678568 589.0399455366287
7.130847535413131 4.67905932648877 629.8813047984778
10.274306397551683 6.741707620857475 592.9516071442863
9.017063908073824 5.91674085963664 604.265983060862
15.929599327819787 10.452549985384893 598.8019694818679
12.788831086549994 8.391667199899599 635.7789944970801
104.5344636753329 68.59254173791983 758.5776307398644
10.27423504447164 6.741660800995881 583.1695579705425
9.01720286871086 5.916832041654137 637.3723351482082
6.502078617015284 4.2664790466237275 681.8034036790995
12.15999503757805 7.979042870861261 602.6855634174881
10.903207767806368 7.154374811863581 635.0746172278139
8.388323777106159 5.504179469264468 598.2591063584437
7.759507975428824 5.091568425924948 578.7083680502882
12.788593699253255 8.391511433107603 615.4608616081063
9.016970481725373 5.9166795559241585 584.7028792804773
10.274399556965609 6.741768749415113 606.4958817724572
14.044967352973087 9.215908089016748 593.5983654831975
11.531759543840367 7.566812609085755 631.2970238595658
6.5019732980726435 4.266409939329206 607.3196574824435
7.130824514648137 4.679044220917572 618.5956698187387
17.185678045661025 11.276753112759513 601.012629884489
14.67336938730699 9.628247629994497 601.8563659509549
6.502014794442468 4.2664371680667825 633.6524356414659
11.531567791384143 7.566686786578091 609.4749240301817
13.417092771722164 8.803914647749439 622.2154996819933
7.130728244164537 4.678981050964503 577.2146682135331
6.501923137395017 4.266377025319293 579.4819512206822
7.130853467323933 4.679063218839914 632.890801716229
6.501978313738776 4.266413230466658 610.3291266188554
9.017104045446878 5.91676719663919 613.2950406070087
6.5021366928545286 4.266517154337559 736.7250940961344
19.06969245726175 12.512989781691306 614.4855292223468
6.502075021621295 4.266476687428457 678.7939812679836
14.672929171407548 9.627958772842565 580.7828640927088
6.502165855059629 4.266536289747071 769.8283601260772
6.50197076216773 4.266408275340532 605.8149196348636
6.502167707955097 4.266537505564375 772.0853945191898
6.502167092128586 4.266537101476534 771.3330481895631
6.502074115290578 4.26647609272002 678.0416290119903
6.502073205932809 4.2664754960253175 677.2892718409689
5.577685473068287 -5.4190875187385386 582.4914433830953
97.43385295958333 -94.66338305114748 756.0366612038362
82.12982744433249 -79.79451781007285 667.2558400127726
131.03030368795302 -127.30453997817477 631.560969627205
50.08340201486544 -48.65931219413509 645.14043911065
92.42126845288911 -89.79332821065715 663.9892249340231
12.587550116669282 -12.229631100230238 601.1037551624141
91.40746410695559 -88.80835074930361 666.5453441124791
90.61817400566666 -88.04150361222297 728.6284155541503
116.12741858423605 -112.8254089750562 658.606132787222
13.66552544151558 -13.276954879347745 613.1025823903142
88.11198259945927 -85.60657417159298 757.3940873805032
14.205653729995174 -13.801724961983336 680.0653371316278
7.7352161138615365 -7.515270142027794 584.7028792804773
85.2414882115028 -82.81770047380326 669.5858180194693
9.892292277965547 -9.61101121138467 600.4449787163761
83.67074035359047 -81.29161583654681 663.8476238094404
40.515915673501645 -39.36387126822987 676.5847623135915
115.60323167446896 -112.31612698812438 655.6827870558049
121.8249824222595 -118.36096619335596 635.7328347334825
7.73540285490701 -7.515451573209894 633.6102778726739
7.195935830935756 -6.991323952445098 599.7639229207346
8.813981510476385 -8.56336152772343 620.7924838754806
70.793973252038 -68.78099145325045 731.9337023184792
8.813881099644155 -8.563263972009628 602.7335949653095
10.970499048546904 -10.658559855224322 596.6474216509424
5.577731040587963 -5.419131790574648 612.5862257554847
7.735307907708778 -7.515359325775118 607.275673380397
12.048475974461962 -11.705885189885212 592.8457676281789
9.353065375013946 -9.087116883950392 595.1936929869885
13.666061181052191 -13.277475385469891 640.9502723987372
11.509452626006086 -11.182188629003475 589.8553907340138
13.665431579340536 -13.27686368608421 608.5866322426785
6.117168942070472 -5.9432311169302245 610.3195141571215
9.353164868033197 -9.087213547948645 609.4907569968989
9.353179943652098 -9.087228194901869 611.7481734820899
9.353257604616571 -9.087303647625996 623.7876744378802
26.579941943658312 -25.824158126370254 646.2239024833058
9.353037987232472 -9.087090274923142 591.431280511322
5.577758194242966 -5.419158172132667 632.9000715983858
6.117164693198136 -5.943226988871882 608.0623732595488
5.577693955181701 -5.419095759668428 587.7580471153484
9.892424338518623 -9.611139516879547 616.9998259989798
11.509633283616758 -11.18236414972939 603.4016269352276
9.353243385958093 -9.087289833266068 621.5302767657073
6.117133578563086 -5.943196758961777 592.2623707221229
8.27452121538583 -8.03924044450787 586.1940462470026
8.274493308317343 -8.039213330959203 580.9268987803462
7.735417963000253 -7.515466251714073 638.1247477952866
7.19592854307062 -6.991316871805792 597.5066952912866
98.45856907175343 -95.65896200957458 754.2622950474945
8.81399345213972 -8.56337312983313 623.049829608696
9.353113386269104 -9.087163530035914 601.9660023584079
5.577747450996482 -5.419147734363593 624.624072932748
5.577813133097316 -5.4192115488354835 681.0510518396004
49.096962450698896 -47.700921414307885 766.1944899582539
15.284454610918099 -14.849850823013217 736.4694457568265
6.656606404365497 -6.467330016586334 620.0900876509075
6.117116263691202 -5.943179936427311 583.9861404905075
8.274571094804177 -8.039288905636543 595.9758351574305
6.117099871684588 -5.943164010517023 576.4622797891508
9.353059938987869 -9.087111602494273 594.4412104076831
46.42772800736649 -45.1075849620657 765.7488269691755
5.577757234981794 -5.419157240147478 632.1477074262228
6.117111412785953 -5.94317522345448 581.7289848707155
7.195906176258113 -6.991295140979435 590.7349937085821
57.05759842679862 -55.43520174753937 733.4022518257574
11.509431780247727 -11.182168375981055 588.3502427823124
9.892519339268786 -9.611231816343539 629.7920650639156
12.048941966953807 -11.706337932175645 625.20679773794
11.509934687091034 -11.18265698298674 628.2358623396669
6.656655613193755 -6.467377826192723 642.6616801956991
9.892418565502794 -9.611133908015768 616.2473411649778
5.577681767000182 -5.4190839180501325 580.2343257144083
6.656572355385765 -6.46729693576778 605.7946585936692
5.577761051601777 -5.419160948244289 635.1571585321319
9.353374635784899 -9.087417351087163 643.3516567262228
7.7352540883726695 -7.5153070367577515 593.7320281709767
7.735296259737301 -7.515348009006334 604.265983060862
6.117223801723093 -5.943284416683364 641.9192777056634
8.813859030457568 -8.563242530346386 598.9712988408968
8.814066162105727 -8.563443772337296 637.3462898022982
5.577680522010926 -5.419082708461358 579.4819512206822
12.04907856934329 -11.706470650362688 635.7426920765892
7.735395179090884 -7.515444115650739 631.3530347747505
8.81398948600201 -8.563369276470034 622.297379766497
8.813894144127095 -8.563276645580958 604.9909662322905
7.195930981526709 -6.991319240925927 598.2591063584437
9.89249200095598 -9.611205255378344 626.0296536332353
5.577733144773679 -5.419133834929175 614.0909561972614
8.274769499422215 -8.039481668744907 640.3694400447398
5.577773088889442 -5.4191726432593015 644.9378618644491
6.117178675030215 -5.94324057313942 615.5861606022668
6.656523710150645 -6.467249673729115 586.9847645290301
8.813965384327684 -8.563345860111554 617.7826831791797
5.577734191083067 -5.419134851487419 614.8433236109876
12.049116364124238 -11.706507370472973 638.75292532165
7.195864458253446 -6.991254609199814 578.6963619630845
5.577722466701613 -5.419123460481327 606.567288631965
11.509943267912414 -11.182665319817898 628.9884063308028
5.5777721823611035 -5.419171762507522 644.185499703727
7.735352814821413 -7.515402955982443 619.3143903843451
5.577755306158797 -5.419155366169341 630.642983502885
9.35332196519289 -9.087366178150084 634.322155652088
5.5776963369866435 -5.4190980737482555 589.2627923278343
5.577728920837199 -5.419129731097654 611.0814899342171
-86.7006064399799 -140.8240885524142 658.5614813859609
-88.72420292591288 -144.110929814899 639.7753595817009
-26.107502245928586 -42.40529979116317 735.9067199427664
-4.077157401542585 -6.622352467101119 636.6618857220263
-10.777001915770207 -17.504623490339604 630.368277621175
-86.97139589242938 -141.26392028366288 646.0371472944797
-57.92545124230181 -94.08583411503014 760.7298859900109
-74.88515336129018 -121.63275323237627 726.4827373190194
-92.93163731687319 -150.94488562651426 719.9963638365199
-73.45410432184475 -119.30836145556418 648.7494955155794
-34.68382258089745 -56.33545026988693 677.2580352460923
-5.654226596425957 -9.183918539966895 598.9990103794815
-88.77397654981252 -144.19177498435545 645.9646783014539
-7.624983757026864 -12.384935145218577 593.6553105443356
-85.6257168675932 -139.07819137197592 660.5958734296622
-53.95703026985988 -87.64009758118831 669.8168977598219
-50.48023898212813 -81.99289412684172 646.4397394989805
-73.47409655583154 -119.34083398655237 753.7587977791544
-7.62517047412212 -12.385238421814167 620.7458470083317
-6.836885693335852 -11.104861151894905 617.0154662398743
-9.595586410359926 -15.58570079092035 648.4972038923172
-8.019034343089407 -13.024974666328703 592.8846891964762
-89.82303013071956 -145.89570786833303 642.3542578504432
-58.519172621713196 -95.05019036976488 667.7229826019418
-8.019165035537043 -13.025186944484242 608.6880631330171
-5.654285134451459 -9.184013620779192 620.0668042970657
-57.918672905579186 -94.07482435246838 756.1723725152184
-45.96659445975655 -74.66157428938936 733.273926801577
-6.836756683477886 -11.104651606697837 591.431280511322
-7.625241288146652 -12.385353442006885 632.033381745745
-4.077230624645127 -6.622471400256259 735.9727441739791
-15.108107717542257 -24.53945348753061 681.2629931446363
-8.019274823433967 -13.025365268271734 622.9861380947115
-74.2226776236634 -120.5567222128705 752.7393775707259
-7.231138346656293 -11.745228882213572 637.3168524407965
-6.836804101261651 -11.104728625376875 600.4610493130122
-6.048483770833857 -9.824293613694646 610.2722021795959
-73.83551987867486 -119.92787843884496 749.0474750009641
-67.81455004380827 -110.14827453510941 754.0722500459741
-9.201019512843326 -14.944822647187936 596.5880502145583
-30.006899953990988 -48.73892478744744 678.7894184502786
-7.231038386788805 -11.74506652167414 618.5048039779593
-9.594857306579112 -15.584516538818672 592.0505594439584
-54.088292588341716 -87.85330135357805 760.1931779740169
-6.8368821265529585 -11.104855358521931 616.2630004671299
-8.019403152439274 -13.025573707588935 641.0465977609225
-6.048400010460167 -9.824157565300453 586.9464903221948
-4.07709440550487 -6.622250145330166 577.2248315381696
-56.77535753268685 -92.21778606950105 760.2715436892576
-5.259958320143606 -8.543525433939084 587.7253422735514
-6.8368785466694515 -11.104849543870193 615.510529491045
-52.4322448457678 -85.16345380206525 671.7579155557855
-8.019423498804736 -13.025606755320538 644.0566468678584
-5.65424394667422 -9.18394672123342 605.0184024577628
-51.74891618534686 -84.0535522715363 732.6922860095829
-4.077107848386341 -6.622271980027851 588.5104198018553
-10.777053803530336 -17.50470776941016 633.3790318588398
-4.077098067056468 -6.622256092631895 580.2343257144083
-7.230843433692646 -11.744749867694377 586.1474254591295
-4.07712702061015 -6.622303120651363 605.8149196348636
-8.019408265857454 -13.025582013095482 641.7991119555876
-6.048460450283692 -9.824255735121975 603.5002541085973
-6.442775487150659 -10.464724792368342 634.3365181766337
-4.077163492682125 -6.622362360678674 643.433137420584
-4.8659381348177035 -7.90353529144584 769.0600512796668
-9.201317421154169 -14.945306526921529 621.4240833732056
-7.231071357505409 -11.745120074599606 624.5246890260736
-7.6252274290829485 -12.38533093132219 629.7758840828516
-4.077134854856082 -6.622315845482113 613.3385934523365
-4.865687771498214 -7.903128637009132 583.2227727176038
-6.04840855301062 -9.824171440599955 589.2038348506618
-8.807196525761437 -14.305152805372131 607.8975654902254
-7.62532572012309 -12.385490581256708 646.3307805436629
-4.077164820290829 -6.622364517056737 644.9378618644491
-10.382609408120864 -16.864028600613334 597.2732504155407
-6.442647901916729 -10.464517561127193 601.9811355292507
-4.077147530846125 -6.622336434550836 626.1287989663059
-4.0770953262509355 -6.622251640858638 577.9772017281448
-8.413190548880369 -13.665185741048411 607.1644338893219
-6.442778224521927 -10.46472923856347 635.0889627625445
-6.836999615726397 -11.105046191163636 642.5992038387963
-4.077110444959057 -6.62227619752991 590.7675320905277
-8.019116457367643 -13.02510804104042 602.6677608544608
-4.471404210022936 -7.262710703895897 582.4813718795612
-7.6252908580300565 -12.385433956249363 640.3108418678353
-4.077116389362085 -6.622285852769622 596.0341235077507
-4.077102564655473 -6.622263397889683 583.9961860633388
-5.654183222261968 -9.183848089166593 584.7028792804773
-6.048598169312814 -9.824479426253431 647.1412581132886
-9.98936163604979 -16.225293055948907 635.6818732767746
-9.594966524847223 -15.584693937382438 599.5770313788653
-5.6543141129314165 -9.184060689285346 631.3530347747505
-9.98874392558949 -16.22428973525563 594.2859227718575
-8.807123723088539 -14.305034555102889 601.1242948394781
-4.077133311089733 -6.62231333800843 611.8338579162868
-4.077150401677145 -6.622341097518932 629.1382542475706
-5.654224390778112 -9.183914957427394 598.246588672386
-6.836864095094203 -11.104826070794328 612.5006464427973
-5.260003071516259 -8.543598121680544 606.535597096763
-4.077149687832418 -6.622339938051459 628.385889423032
-4.077109582742213 -6.6222747970679485 590.0151598837653
-5.260059149760411 -8.543689207175154 632.8696976193892
-4.077140917839156 -6.622325693326324 619.3575203446999
-4.471489561913446 -7.262849337322824 645.6811375275538
-5.260072462717489 -8.543710830842201 639.6412810800209
-9.989062729763784 -16.224807555246922 614.6078890740723
-5.259976730008231 -8.543555336295166 595.2494653653746
-4.077125418560791 -6.622300518511077 604.3101860087174
-4.077145350413544 -6.622332892967409 623.8717073097482
-4.07714897142439 -6.622338774420526 627.6335292766978
-4.077139418683835 -6.622323258312425 617.8527870530793
-4.0770971570111305 -6.622254614484158 579.4819512206822
-4.077135622483573 -6.62231709230663 614.0909561972614
-4.077159453446549 -6.622355799921007 638.9189707468357
-174.62796882200593 60.349777297867135 634.1164426638194
-114.36043261218467 39.5218857917757 667.6906048402902
-133.81204223359185 46.2441784271181 655.3661891285171
-16.587864241821638 5.732609269833287 613.1454956720339
-169.65481175645962 58.63110116942319 641.7895549922611
-11.615033850392386 4.014046036879952 644.870699355981
-18.008052026409043 6.223412759670367 610.0919539997866
-175.5659914652782 60.673949067164514 650.2531727112457
-63.22958472327653 21.851547506549803 677.9440934821022
-99.33463043854901 34.32911042470376 669.4934613161246
-176.50877905505274 60.999767556985475 632.7801137799228
-129.74657511229603 44.839191373571815 754.2622950474945
-11.614677376135628 4.013922842742421 594.4565347927223
-7.350254251758702 2.540178472948256 635.9095221907094
-18.717480904852014 6.468584682080735 592.0043042920394
-144.35499653782318 49.88772389474294 647.5737896432123
-122.94061479965733 42.48711574710373 754.7161166543225
-123.16277793440999 42.56389322895021 667.5485641494043
-12.325708635900362 4.259648533008917 647.8663908985882
-105.50683258759443 36.46216521337841 670.0081378771241
-11.614981076722492 4.014027798797892 636.5938509795457
-10.193540026476398 3.522791192181713 632.1054493894557
-12.325563731637066 4.259598455463617 629.0549240898395
-159.32765734064589 55.06213410578919 641.4940967770092
-86.86520068269671 30.019793229563515 647.0483631520159
-16.58776756898171 5.732575860612533 608.6298627877788
-7.350159833857443 2.5401458430130153 585.5009328966167
-99.58665411119631 34.41620742652228 759.9052334397866
-10.193382830348318 3.5227368666839953 599.7514366044759
-11.6148744072647 4.013990934840385 620.7924838754806
-8.061024433541242 2.7858139371290394 591.5099862426658
-47.06611447733902 16.265604794833934 735.1527776539267
-143.16270480874806 49.47567913004024 660.1956349509688
-137.18137764625317 47.40858893459635 751.3252426431262
-12.325533171854447 4.25958789429127 625.2926027206237
-9.48256528402785 3.2770850337660895 580.9536095566011
-7.350244156592885 2.540174984154262 629.8906189406981
-7.350156634220608 2.540144737248734 583.9961860633388
-38.56375441864035 13.32726943246279 648.2694281243251
-17.298002483717216 5.9780263415555135 611.619217372775
-59.72022832560749 20.638747068642612 677.5291395997676
-70.99081982895714 24.533757082391748 734.6058773002428
-7.350249240166837 2.540176740989424 632.9000715983858
-10.904221477266594 3.7683959917692844 623.8160174163895
-109.2487910799101 37.755350739113375 759.2451367739426
-8.061156393498292 2.7858595412443132 647.1858775432053
-14.456709441724794 4.996102291937787 598.1525123799702
-11.614647059112825 4.013912365465575 590.6942175431482
-16.58781617288789 5.732592657663621 610.8876801028097
-10.19356994415792 3.5228015314499825 638.8771602003118
-10.904118277872339 3.7683603270329735 606.5100114930044
-11.614671358763799 4.013920763195529 593.7040711634603
-122.95386338859697 42.49169433435647 757.7651832681679
-20.84720165248145 7.2045960649829155 600.9616919003761
-7.350260417083193 2.540180603626191 639.6713337735961
-7.350227120879762 2.540169096772647 620.1098819735658
-13.746719455864348 4.750736456101563 633.5383811297767
-17.298773865448172 5.978292923798834 646.2394130733712
-57.613973688295 19.91084535191377 679.9899104027696
-13.035881748053756 4.5050776555630225 603.454967931294
-13.746393851452396 4.750623930290943 605.6956308446242
-22.979779272993657 7.941594756180592 681.4309882202782
-7.350148525997517 2.540141935123386 580.2343257144083
-12.325179687377492 4.259465733393411 586.1638872341433
-13.036225283640297 4.505196378218285 638.0693304146913
-13.036023066158238 4.505126493765696 616.9998259989798
-12.325551573634856 4.259594253772841 627.5499995453656
-10.904127602638447 3.7683635495841017 608.014885840348
-11.61458465687371 4.013890799840898 583.1695579705425
-15.877861677205155 5.487239086897737 626.7119348981655
-10.19351261442689 3.5227817188362103 626.0861350445927
-11.61485849832757 4.013985436861915 618.5351350719851
-20.137271759988867 6.959250996847261 595.7182597333031
-7.3502628528860185 2.5401814454166503 641.1760546423959
-10.193394625578877 3.522740943004313 602.0087087244457
-14.456628829469292 4.996074433103376 592.8846891964762
-12.32535136376969 4.259525063133695 604.2234359878889
-9.482736280677436 3.277144128593744 621.5836894480793
-45.65325238938776 15.777332996589701 736.0020202797984
-8.771956692039526 3.031505413492558 628.3663556101377
-7.350153409773996 2.5401436229104277 582.4914433830953
-8.061130774679174 2.785850687622303 635.1479215700093
-10.904060842556094 3.768340477929947 597.4807235499823
-9.482739135264058 3.2771451151119293 622.3360880218069
-7.350141924991693 2.540139653878096 577.2248315381696
-9.48271600500709 3.277137121513502 616.3168689870806
-13.035873616806805 4.505074845480846 602.7024701304973
-7.350169286351869 2.540149109705844 590.0151598837653
-11.614683370719552 4.013924914414028 595.208998033549
-12.325202013776487 4.259473449186112 588.4213435103146
-9.482772598785422 3.2771566797889715 631.3648968138194
-15.877990248136777 5.48728351979782 634.2375695006633
-13.036007823106512 4.505121225910934 615.4948510810286
-7.3501468853775735 2.5401413681406235 579.4819512206822
-10.19356337805416 3.5227992622665165 637.3723351482082
-7.350138585610777 2.5401384998195797 575.7200810268859
-11.6147130057421 4.013935155998025 598.9712988408968
-7.350203589884937 2.5401609646830003 607.3196574824435
-7.350267673406703 2.5401831113430866 644.185499703727
-7.350423361968028 2.5402369158399676 772.0853945191898
-10.90408027556314 3.768347193793708 600.4904914872649
-11.614634769538414 4.0139081183046885 589.1892907690135
-10.193533246964709 3.5227888492464805 630.6006247205362
-8.771945636217923 3.031501592704995 624.6044215613393
-7.350217609321313 2.540165809667849 614.8433236109876
-12.325675014136154 4.259636913644643 643.3516567262228
-15.167751364974029 5.24183166740385 642.5340853079156
-7.350163008918122 2.540146940284009 587.0056742676968
-10.193447957859883 3.522759374137099 612.5426194658639
-7.35020785024737 2.540162437024033 609.5767583494564
-7.350270058441371 2.5401839355885496 645.6902239031783
-7.350164587319795 2.5401474857647246 587.7580471153484
-7.3504205650401495 2.5402359492480993 769.0760135818306
-7.350264064374792 2.5401818640957323 641.9284172953869
12.574069065927398 110.1878546778077 669.3612369210393
6.492524958239851 56.89466097566789 735.3871513154542
1.3080485309105643 11.462563206850238 613.2819480618434
0.88171267164692 7.726538419792498 574.9677103245468
18.90968118468957 165.70747237490002 660.547661322143
15.0729348583315 132.0856714743516 751.1855066541774
1.9898060076019346 17.4368737799278 593.5775662506095
1.478511303541395 12.956345937018247 585.4113992952892
1.6490382278133404 14.450690834585801 633.5383811297767
2.330498496637228 20.42239694468964 596.496237899966
11.613255354861998 101.76814575047241 757.2534572453968
12.599254864006593 110.40856040513785 730.2314128442634
11.281473576324807 98.86070805416895 761.4183184162724
15.952122268201377 139.7900807666315 726.8807215799281
17.47439425397298 153.12990604266898 647.2598600844037
10.427727438616971 91.37924323476506 673.6129150239872
6.489298348479634 56.86638586396803 678.7894184502786
1.8194398187769345 15.943937423539456 607.9169895593631
2.075014049750947 18.18356057769142 601.0823185007349
13.391553542103912 117.35155484439797 666.656192739163
10.858479345521186 95.15396629945417 733.0642823469938
2.07511911717315 18.184481294269986 638.7134142417053
1.0522633658008878 9.221091615270002 604.28987455624
1.2227818022221493 10.715362132932947 595.2368844645833
1.6489769363990026 14.45015373164636 591.3977363854025
12.692466290700713 111.22538168113306 760.5260624634454
1.3933068118803702 12.209690252544398 623.049829608696
1.1375263465857688 9.968259845924877 600.5163332281547
1.3933188894436295 12.209796089467854 638.0987331203607
13.35250971356972 117.00940977727339 758.1642878785569
11.669328012194983 102.25951618793468 671.3375855450633
2.074985812228175 18.18331312938814 592.0505594439584
10.279831413358252 90.08321522241764 759.4421389201497
1.4785688856201744 12.956850534670393 640.3418286615805
1.7342488117393666 15.197399906201642 622.2336113850572
0.9669995087059291 8.47391570542019 623.8623033675627
2.0750710641141112 18.184060200393503 620.6507235908232
1.2228010801934708 10.715531067769499 627.5909675553507
1.0522738471981896 9.221183464827744 632.8806770130576
0.881712469380856 7.726536647314268 574.215334639922
14.665982083088414 128.51950263719098 754.8344573796356
0.9669980307851267 8.473902754248876 618.5956698187387
1.0522565867283478 9.221032209563228 587.7371641208866
1.2228098399361869 10.715607830291827 644.1440307084114
0.9669847120321604 8.47378604065293 576.4622797891508
0.8817428286126177 7.726802688370664 736.7250940961344
0.8817120624555079 7.726533081385779 572.7105827515659
1.6489757214053244 14.450143084532355 590.6452089606836
1.3932754361665478 12.209415303951628 588.4368243789502
1.393395858877911 12.210470580501328 769.0196842851373
8.939288899334171 78.33590391449984 762.214533259918
0.8817234936929174 7.726633254489637 620.1098819735658
1.3932761775310816 12.209421800604945 589.1892907690135
1.9899293710373573 17.437954826343535 643.2490573541701
1.9899326711892409 17.43798374591239 644.7542106416015
0.8817467832457527 7.726837343225739 769.8283601260772
1.3932897412397665 12.209540660772932 603.4860540286908
1.3080384236401559 11.462474635804769 599.7380488017901
0.9670011525888355 8.473930110934415 629.8813047984778
1.4785166498782958 12.956392787515918 589.9263105002539
0.8817351944257957 7.726735789209882 683.3081166687134
0.8817265987815234 7.72666046469902 635.1571585321319
0.8817264487538525 7.726659149991179 634.404794745842
1.2227924931257612 10.715455818415935 612.5426194658639
1.0522600468269692 9.221062530761724 596.0135302478092
1.5638187567622803 13.70390388418334 647.851494142504
1.6489888358251759 14.450258007536293 598.9229661773987
0.8817287867293121 7.726679637909515 646.4425810102728
0.9670137325009949 8.47404034999272 682.5471643319444
1.9046321612435855 16.690486643379057 601.8768800280018
2.330807713194995 20.425106641045893 681.549274298394
1.5637738064818851 13.703509980273799 608.7224299212944
1.0522714939281914 9.221162842881798 626.1091947876148
2.075002439421202 18.18345883518309 597.319099218539
1.4785470731114594 12.956659389423152 617.7679364322345
1.8194383164540289 15.94392425853001 607.1644338893219
0.8817148451813425 7.726557466697189 583.2438172107444
1.1375308107684892 9.968298966015142 609.5452231469242
1.7342560006650487 15.197462903493467 626.7487590333835
0.8817204993210999 7.726607014502808 606.567288631965
1.3932848570074265 12.209497859744843 598.2188423310622
0.9669960742539102 8.473885608965498 611.8242690787675
0.8817146514064641 7.726555768628089 582.4914433830953
0.8817213511112802 7.726614478827372 610.3291266188554
1.393308059019976 12.209701181356458 624.554728281959
1.478543202115441 12.956625467488692 614.0055863553721
0.8817128731195119 7.7265401853174485 575.7200810268859
0.8817150382068016 7.726559158199051 583.9961860633388
1.5637661040567248 13.703442483133472 602.7024701304973
0.8817279253855673 7.726672089866088 641.9284172953869
1.3080512211260804 11.462586781484253 617.0441197971793
1.5638058052314414 13.703790388592498 635.811900111357
0.8817203270565843 7.72660550493122 605.8149196348636
0.8817144568795263 7.726554063968615 581.739069389894
1.30805438517254 11.462614508347343 621.5587225200575
0.8817274878613062 7.726668255796189 639.6713337735961
1.7341980144166937 15.196954764061946 592.8846891964762
0.9669940516923544 8.473867885051495 605.0528544194921
1.05227358945119 9.221181206164395 632.128289774227
1.0522725492047547 9.221172090378372 629.1187437779057
0.8817134728279493 7.72654544062389 577.9772017281448
0.8817252290747285 7.726648461818132 628.385889423032
1.0522733307825913 9.221178939424979 631.375902350934
0.8817256905479417 7.726652505755149 630.642983502885
0.8817223526989851 7.726623255842982 614.8433236109876
0.8817268972432739 7.7266630801498986 636.6618857220263
0.881714065555117 7.7265506347527495 580.2343257144083
0.8817118577891361 7.7265312878734065 571.9582113566295
0.8817289285378388 7.726680880592155 647.1949428062918
0.8817233324741839 7.726631841713369 619.3575203446999
0.8817176641273416 7.7265821694096095 594.5293859458104
0.8817152304891559 7.726560843189009 584.7485595617995
106.95288584372602 11.32498892798283 755.8152893184574
94.56066573431264 10.01280595671366 760.441107653839
116.0567967538333 12.28898059071322 673.7605597852356
186.16306472282713 19.71236802217659 655.3256372344762
18.20014037378498 1.9271699552082648 613.1244785735223
188.20378394956694 19.92845496986044 738.039606531657
55.42162231146493 5.868464923567139 653.2451063249555
56.91977881257975 6.027101183390006 683.3182757463932
138.74292982498048 14.691161736389693 662.7002966199627
9.97721946135953 1.0564642462948532 610.2976302589348
174.53926070653074 18.48155081937625 647.5055189951131
35.375364781254376 3.7458139751033253 736.6954749984949
175.86389825355639 18.62181356624196 645.6039081989786
80.61708016129319 8.536352554029813 763.5042680095847
7.733494114289437 0.8188814591400377 594.5293859458104
15.958316767849446 1.6897885389386098 614.6899967076407
86.45768405631047 9.154800330562475 734.1150125721961
13.715577913721582 1.4523102091956739 592.1674700773942
86.36237199109826 9.14470796068656 678.8119303276802
104.7745643046243 11.094331595856614 757.628377361057
129.60577140649735 13.723649573382296 670.6079226465495
59.86065815681345 6.338503963681921 653.6216496249298
13.715882211175915 1.452342430535696 619.2572923152303
108.4123969739724 11.479533120595447 757.8936022438761
101.13682568171812 10.709140029473792 760.3818978261268
88.70276285487925 9.392526431505566 763.3944902418311
16.705802701545196 1.7689380621716368 621.443953517081
99.67117956116357 10.553946217201405 757.534654007217
10.72521030463509 1.1356672332129025 647.9060760559657
11.472821990632346 1.2148300720606602 614.0343801418426
12.9681247756696 1.3731641586160457 604.2234359878889
10.724926260929065 1.135637156494538 591.4747462849803
17.452599863756188 1.8480146530160024 598.8459037624457
7.733546653981664 0.8188870224441791 620.8622482752977
14.463660832035199 1.531522945722425 637.3008621331961
13.715944523774889 1.4523490286698921 625.2771691344029
66.53040112600796 7.044747321986311 681.7226789880708
35.36927996483887 3.7451696682387574 685.4775254710466
73.16480241461632 7.747248433055602 683.3347512573149
10.72498127597812 1.135642981908378 601.2562881811039
10.72494774152499 1.1356394310241975 595.2368844645833
19.693526451547406 2.0853010861491823 589.7461652091988
9.229423339222713 0.9772818779391073 629.871131758554
14.464566448570569 1.531618839322258 736.6269815603405
13.715936833059008 1.4523482143181192 624.5246890260736
15.211190098607467 1.6106770573715843 636.531512084531
7.733601500225679 0.8188928299836514 652.4614624014613
7.733460825243599 0.8188779342414568 579.4819512206822
12.967990859172733 1.3731499785139165 590.6787957286515
16.706008934780467 1.7689598997227005 632.7324493484942
10.724956220280047 1.1356403288195807 596.7417347550654
7.733581561354976 0.8188907187036409 640.4236918652537
9.229388057140849 0.9772781420026403 618.5853113318777
15.958514514606183 1.6898094778764694 626.7307774848963
15.958735037153673 1.6898328284891153 641.029016312955
13.715709684882452 1.4523241621332321 603.454967931294
12.968160396968653 1.373167930471421 607.9858074397963
11.472909096170675 1.2148392954607523 628.3305992350299
13.715842334814042 1.4523382081217506 615.4948510810286
9.229345663959934 0.9772736530886603 605.7946585936692
11.472836147933222 1.2148315711438724 616.2916889534307
64.35393976080458 6.814286959288612 735.551217502202
10.72490877920382 1.1356353053958672 588.4650312404104
8.481458255480048 0.8980816186372651 608.8147537329066
9.229469661726242 0.9772867829197953 645.6712132339804
12.220655922584974 1.2940164440086612 629.069406678391
18.200453758306484 1.9272031387564064 625.9190504719646
10.725079854141482 1.1356534201176867 620.0668042970657
9.977329498333741 1.0564758978506272 638.1364840927599
12.968512307904303 1.3732051934907257 649.3712963658588
13.715701129586789 1.4523232562331447 602.7024701304973
9.977167054869284 1.0564586970951555 598.2591063584437
15.210549457209233 1.6106092213643128 592.8846891964762
12.968429177418038 1.3731963909995248 638.8369149394666
16.70500980203046 1.7688541039113752 583.0619472661363
7.733587912430562 0.8188913912040614 644.185499703727
9.9771568736697 1.0564576190319348 596.0018723905262
7.733520486920181 0.8188842516757308 607.3196574824435
91.63694496031758 9.703220056970967 763.817040427281
7.733549456490411 0.8188873191952231 622.366975658965
12.968386049896496 1.373191824327947 633.569698527021
16.706166156301766 1.7689765475389228 641.7631492167512
7.733602709943909 0.8188929580778628 653.2138232433526
7.733597845855821 0.8188924430310428 650.204383977273
7.7335853853816054 0.8188911236208052 642.6807798246617
7.733518981608234 0.8188840922817975 606.567288631965
7.733592913775741 0.8188919207847111 647.1949428062918
12.96819536369027 1.3731716330151351 611.7481734820899
7.733599068204957 0.818892572462711 650.9567451738617
7.733474448993353 0.8188793768281987 585.5009328966167
7.73347945035121 0.8188799064101908 587.7580471153484
9.977146576219525 1.0564565286592134 593.7446409191067
7.733506734803962 0.8188827954965665 600.5483421236864
7.733749516375623 0.8189085030648036 769.8283601260772
9.97711496827078 1.0564531817680403 586.9729275445068
18.200559843219885 1.9272143718377788 630.434733903962
9.977271850247302 1.0564697936306664 623.0884911800157
9.22934308622399 0.9772733801382785 605.0422642749844
7.733586651117546 0.8188912576465998 643.433137420584
7.733600286324329 0.8188927014464994 651.7091062518081
7.733565853098278 0.8188890553933732 631.3953431245155
7.733591669981439 0.8188917890822648 646.4425810102728
8.481505250244025 0.8980865948020269 627.6241816611591
7.733540987422148 0.8188864224255517 617.8527870530793
7.733552238760433 0.8188876138032363 623.8717073097482
7.73347108249381 0.8188790203574989 583.9961860633388
13.715666586131672 1.4523195985081225 599.6924790279064
7.733476122533857 0.8188795540354571 586.2533060684196
7.733571163735288 0.8188896177242059 634.404794745842
7.733530869312082 0.8188853510427313 612.5862257554847
7.733573790836716 0.8188898959017823 635.9095221907094
7.733509830952257 0.8188831233404099 602.0530772409007
7.733524969462705 0.8188847263215904 609.5767583494564
15.877375220741339 -47.18160512932633 686.1390341187538
39.37682464657564 -117.01315651307699 729.8625069561863
24.19248665263788 -71.8909981323703 735.2891395032472
56.83799643670271 -168.901211121806 740.6519573145204
43.555279493631055 -129.42995739506077 755.14990414863
57.250090891009485 -170.12580130429964 641.7895549922611
34.536162783648216 -102.62852470801172 756.474974478238
4.398944607835625 -13.07201376720937 598.1874830310512
3.1999406834421427 -9.509023731214963 611.8024389550818
43.098045297509216 -128.07122882732725 756.1595846115735
