ply
format ascii 1.0
element vertex 831
property float32 x
property float32 y
property float32 z
element face 0
property list uint8 int32 vertex_indices
end_header
-56.708602362656855 -34.28100994947115 382.24366794940204
-59.16870928846516 -35.768173210188934 380.99355454757494
-58.55039385568063 -35.39439433678902 380.354176702434
-59.16166125115761 -35.76391258963054 379.4668593059469
-57.92834325620538 -35.018357511664796 378.9510170732879
-58.54005977565788 -35.38814726517521 378.06460917112423
-59.150938213694296 -35.75743038871828 377.17650837485456
-55.45281282684533 -33.52187056359298 377.14496463657406
-54.83209801562496 -33.146641238011114 376.5006049714792
-58.52600356343584 -35.37965012133883 375.0112937385681
-58.52243895797211 -35.377495275860774 374.2478627648135
-55.440719333277684 -33.51455990601999 374.09569082302045
-10.51334100478804 -6.355436963204965 378.47478237923303
-56.667207347392434 -34.25598618110064 372.32914178415416
-56.66389323864741 -34.25398276380365 371.5662162664877
-57.89034439111117 -34.99538675558739 370.5557214292104
-58.50061477909384 -35.36430230579813 369.6664224410708
-11.15599593224843 -6.743929344333614 374.6870496868455
-56.65044265388551 -34.24585172881358 368.514122933689
-54.799084245827736 -33.12668403004378 368.11562423209665
-56.02833598909277 -33.86978101155259 367.11085810168885
-56.64014660488087 -34.239627647392716 366.2246321484026
-55.40597891188822 -33.49355891707505 365.7070680025897
-10.51310184448593 -6.35529238801964 370.19513536665363
-58.47030596533037 -35.345980275226154 363.55546460925916
-55.39610882156567 -33.48759233263367 363.4184444660088
-58.46250364245506 -35.34126368026571 362.0272876202611
-58.458567767730486 -35.338884398199646 361.26313743909503
-58.454608466285265 -35.336490954408376 360.4989376671299
-54.76716754098193 -33.10739001060426 360.48890738703045
-56.6081427254809 -34.2202809299209 359.3539203880949
-57.830544606409056 -34.9592370899469 358.3354110962805
-58.438533559503036 -35.32677348622226 357.44169148359725
-56.59708801564019 -34.213598229197395 357.06291917200133
-58.430350808566054 -35.32182691807214 355.91279126090825
-57.81468633497519 -34.94965058034948 355.2785769338077
-59.03280335917774 -35.686016494629285 354.2519003945411
-59.0284928298154 -35.683410729475476 353.48704190163477
-57.80253948019612 -34.94230766530331 352.98547168488494
-57.18674211974826 -34.570050995929414 352.3510094371568
-55.95758883916787 -33.82701353625912 351.8433816740925
-56.56661214962538 -34.19517521359578 350.951637456363
-55.95003366050023 -33.82244634284781 350.3156869318647
-57.781796837636605 -34.92976849652935 349.16268982883594
-55.942385390652596 -33.81782287473505 348.78780680984926
-57.162408767473174 -34.55534120135342 347.7647199397202
-56.54679642439679 -34.18319637713332 347.1306121789586
-54.09060482869344 -32.69839997901999 346.87594973467117
-57.1499019970033 -34.547780713084435 345.47093806465506
-55.92284751475856 -33.80601200142818 344.96730814932346
-57.75166852793596 -34.91155558276357 343.80877549987923
-55.30267450194291 -33.43111019928595 343.5678503551479
-57.13286094976278 -34.53747920174995 342.41188089518954
-53.454945892193145 -32.31413675582713 342.42038167920253
-54.6784114060097 -33.053735894309845 341.4039497180892
-55.28692745755498 -33.42159092773196 340.51122863445914
-58.33344696977343 -35.26324742001737 339.0821834667294
-58.93650879686975 -35.627805311298594 338.1794325236468
-56.496657918596654 -34.1528870670009 337.95527994513765
-57.10199504613389 -34.51882040387243 337.05661236429654
-58.92169880428343 -35.61885249846154 335.881494116262
-58.91669949618015 -35.6158303585447 335.1154039720806
-58.91166846612882 -35.612789042341156 334.349263682305
-58.299730519171575 -35.24286543332775 333.72180054514985
-58.294790611034706 -35.239879201381726 332.95581375607253
-57.07442990957889 -34.50215695809648 332.4643696121866
-55.851654054639035 -33.76297472642911 331.9686317137887
-56.45648515902813 -34.12860216641986 331.06904413241875
-55.23290841699738 -33.38893578918749 330.57184273399474
-58.269611764317126 -35.22465829557767 329.1250526623053
-58.87024430631094 -35.58774765574898 328.2180918760603
-9.869199421124954 -5.966045881104105 334.0889103382548
-56.43314415794041 -34.11449225968294 327.2415129086021
-56.428384499488715 -34.111614990768864 326.475842926472
-55.81538077671406 -33.741047107873214 325.846511216497
-57.02606216008381 -34.47291809075373 324.80632901633953
-56.413917890669396 -34.10286975741434 324.1785065379131
-55.80128382362943 -33.73252533571137 323.5498246480916
-58.826626737804226 -35.56138032808345 322.08320844459143
-58.21674565349261 -35.19270011647153 321.45924328550393
-59.41864478248286 -35.91926212439552 320.4040955748669
-59.412780086879394 -35.91571684766577 319.6365534612892
-58.200199251009465 -35.18269762364821 319.1583450703688
-53.947173242841764 -32.611693916504024 319.36333613546486
-55.15987074197323 -33.344783664820596 318.3267343879997
-56.36876412633716 -34.07557378149819 317.2834321496596
-58.78066005169271 -35.533592931493146 315.9444354906163
-58.774740748701184 -35.53001464396194 315.176804885318
-58.76878176307718 -35.52641236781768 314.4091101907851
-55.74201325429621 -33.696695586918956 314.3580234856386
-56.3424841625714 -34.0596872376267 313.4507874155348
-56.94175749551911 -34.42195494011484 312.54152474094997
-57.539812003794296 -34.78348584890705 311.63023746369237
-13.079395283512701 -7.906646631489264 317.3766401866136
-56.92491969869201 -34.41177629602014 310.2401427894113
-56.31530193593969 -34.04325526535463 309.616614757947
-56.91350219172559 -34.404874280212894 308.7055678969169
-56.30416727310646 -34.036524232116875 308.08251166972394
-58.70693028833215 -35.48902243167423 306.7285671797018
-59.300241045839115 -35.84768568793212 305.8096954648308
-58.69404704547792 -35.48123436146854 305.1916469769965
-58.68753882285214 -35.47730006516617 304.4230880326697
-58.68098559132003 -35.473338560456234 303.6544544403803
-57.47386851293759 -34.74362224141229 303.1849852698177
-58.66774258218655 -35.46533300734875 302.1169763429987
-58.66105201403621 -35.461288481055135 301.3481358908507
-55.649360671657504 -33.64068602267384 301.3214875552014
-57.44862152397769 -34.72836014282989 300.1119640777632
-56.24010267188111 -33.9977964352657 299.64029567559146
-55.63184717100968 -33.63009890775751 299.0189972363023
-58.626890841305084 -35.440637654663895 297.50283322816125
-56.82266026421168 -34.34995927805822 297.1878528022486
-55.613959548355645 -33.6192856317354 296.7158961600535
-57.409400095710005 -34.70465033308924 295.50032589106075
-58.598685583168226 -35.4235872479437 294.42526825519667
-56.19668880429327 -33.971552247175744 294.26372554747525
-57.38915653693025 -34.69241286626713 293.19352696247205
-57.38231202987327 -34.68827528211333 292.42445143400795
-11.794254199691563 -7.1297638933254 298.61668169117314
-54.36759096755361 -32.86584132277605 291.63471831437
-58.554847678723114 -35.39708672463974 289.80664252173125
-58.54735668208372 -35.39255833001128 289.0366040323631
-58.539811522805024 -35.38799719343716 288.2664817072877
-59.12676318374825 -35.74281630183232 287.3381014178578
-58.52455679369011 -35.37877553219394 286.72599832745857
-55.53185769532995 -33.569654106302195 286.72852201379277
-56.72166306804774 -34.288905297845076 285.6542461528139
-53.115153987881456 -32.1087285960921 285.78567640538324
-53.71129136561671 -32.46910057716655 284.8712693349369
-59.07855411834775 -35.713673360871084 282.71316181689355
-59.070312134798215 -35.708690985917485 281.94204498182717
-56.68548108951339 -34.26703287083312 281.80590907968906
-53.68640848331965 -32.454058585298334 281.7988229813715
-56.07447521989804 -33.89767271341788 280.4218640080364
-56.663122360997164 -34.25351675929468 279.4959512484958
-57.84390698334473 -34.967314802279695 278.4083732059686
-53.06040481171717 -32.075632082078045 278.87464511450827
-58.41977547412458 -35.31543400535515 276.7048498457713
-54.24662171393444 -32.792714001450456 277.0362898911215
-56.03000055723358 -33.870787262361446 275.8023011680392
-57.210331952405475 -34.584311324245334 274.7140678064735
-55.41946258163136 -33.50170995232123 274.41894268358135
-54.81594499851901 -33.13687655122547 273.8049262572397
-55.40444055236215 -33.492628960842275 272.87879762995294
-58.35901698535015 -35.278704791948144 271.302802560194
-56.57670453451553 -34.20127617768974 271.0196998682972
-58.341058487452344 -35.267848671016516 269.75855042515013
-57.15186703928751 -34.54896860400909 269.31518811287197
-54.175683495874644 -32.74983102324631 269.3417480413946
-55.35797133853531 -33.464537780400995 268.2563415083357
-56.53496974135838 -34.17604700962967 267.16338964063425
-54.15331626792906 -32.73630977370394 267.03177779760944
-56.51781996259573 -34.16567976882494 265.6202374599236
-55.325774209349646 -33.4450742411852 265.17296430169677
-56.50040158048252 -34.155150154169505 264.07671250911653
-57.66947540909809 -34.861868886085 262.97291411688195
-55.89238276065589 -33.78759570310675 262.69690855545866
-56.473758366902366 -34.13904402155869 261.7607295131995
-55.87496587125935 -33.77706699081592 261.15338564454794
-54.68384462320499 -33.057020337321475 260.7073839542498
-55.857271876008326 -33.766370764811846 259.6094907267225
-57.02503007630115 -34.472294184098516 258.5039324034888
-56.42792963226602 -34.111340018240234 257.8988443644823
-57.59178956392519 -34.81490688878036 256.78817014961743
-56.99598648177077 -34.454736993274146 256.18476718092916
-53.44937749878325 -32.31077059722095 256.40285288241876
-56.976233975732406 -34.44279637354774 254.63814899564392
-56.38023964124323 -34.082510863779895 254.03450081344516
-56.9561617548165 -34.43066248245789 253.09112558347107
-54.59744409630098 -33.0047902135125 252.99073313086876
-56.35069079764643 -34.06464824401616 251.71468160737214
-56.92543878303289 -34.4120900885439 250.76980177448374
-58.66109701621824 -35.46131568539779 249.47141869441808
-55.73508855114687 -33.69250952329423 249.56460651253283
-58.05790402405156 -35.0966785033054 248.0978001338665
-55.715119557609455 -33.680438034355745 248.01771031088126
-56.28938278049324 -34.02758683431027 247.07222117553783
-55.109554536616024 -33.31436693323833 246.64115088918894
-56.26826560485501 -34.01482125593242 245.52387372002372
-55.67417918882773 -33.65568910507398 244.92264714788564
-57.40918586445465 -34.70452082780273 243.62346593080125
-55.06922087045592 -33.2899847627505 243.5468585374345
-55.6425677402176 -33.63657961658067 242.60021137123226
-57.37423167623628 -34.683390614322484 241.29695304285391
-56.20276496713759 -33.97522535831308 240.87618550356947
-55.610150760742634 -33.61698317530697 240.27677592479333
-56.75993506069942 -34.312041162708894 239.1484840699787
-55.58807855159323 -33.60364026805952 238.72724988810563
-54.99529193410106 -33.24529386053909 238.12763464104322
-56.145598356638935 -33.940667477116335 236.99997312653514
-56.13387060183298 -33.93357791288027 236.22437801879576
-54.96223579795406 -33.22531104162038 235.80340962602506
-56.11011189616453 -33.919215498864176 234.67283455701852
-55.51955779133297 -33.56221867122302 234.07589539678116
-56.08594111726892 -33.90460398178766 233.12080294697606
-52.58727196608651 -31.789617771854683 233.40019922440953
-56.061349035099006 -33.889737781979846 231.56828632198452
-56.62456181330242 -34.23020645954991 230.60952327457676
-55.45968484639152 -33.526024779366615 230.19647200441068
-57.74417296971416 -34.90702443060547 228.68435160777304
-57.73017747845667 -34.898563993298666 227.9061924733988
-57.71605910681668 -34.89002927337089 227.12789557611774
-56.558638411689024 -34.19035499623647 226.7231728789279
-57.116980708852466 -34.5278794113484 225.75897216706863
-54.80861609335183 -33.13244614277795 225.71936967100336
-51.31555113366084 -31.020847731807947 226.0055204192918
-54.20711069976319 -32.76882913366168 224.34773323701836
-55.34506052713631 -33.45673304468922 223.20561205410732
-55.33174840732405 -33.448685713372285 222.42819833233108
-55.89053622263848 -33.78647944939022 221.4644809295133
-54.731527099416155 -33.08584494899075 221.0580216050768
-55.29108523112692 -33.42410435023312 220.09515801087815
-55.277283708014856 -33.415761168927105 219.31720500146022
-53.54311302147582 -32.36743481132895 219.09364217262765
-54.677762252802694 -33.053343473643125 217.94780027283068
-54.66401149184283 -33.04503097864875 217.16990761419714
-54.65013381483993 -33.03664176142964 216.39187158201466
-55.775092165771646 -33.71669217378871 215.2354507318175
-55.760059074804715 -33.707604495384764 214.45618315613152
-55.74488678114264 -33.69843266733195 213.67677551527538
-57.42248265294987 -34.712558891160135 212.3137974913484
-55.14721483101259 -33.33713301938964 212.3093423888728
-55.698516834838756 -33.670401495263306 211.33765700065481
-54.54930770588454 -32.97569120542472 210.94166889922468
-57.353940610592254 -34.67112442904816 209.188266081892
-55.08582765840432 -33.30002375929016 209.1909762489086
-56.75893451831005 -34.31143632319292 207.8235038899466
-57.30083178557002 -34.63901952638544 206.8424787787964
-53.33819373547119 -32.243558718643065 207.4267641197442
-55.0220818706966 -33.26148868891988 206.07019998678413
-55.5682966227907 -33.591681861929835 205.0933729926918
-57.22764678705001 -34.59477834325114 203.71251843345402
-56.65230500280436 -34.246977540403996 203.1315425667305
-50.98393743712783 -30.82038339383098 204.28562051796092
-53.81305717070107 -32.53061919041508 202.55744617887714
-55.48172920875232 -33.53935085290635 201.18560190550352
-55.4639092157189 -33.528578459776796 200.4035594116883
-54.887030088827636 -33.17984831541294 199.82113453978525
-56.53938262209103 -34.178714647377724 198.433683369504
-55.96550829292238 -33.831800938198896 197.85405980947678
-55.3908689689208 -33.484424780742614 197.27373484965176
-54.257069977409415 -32.7990300982897 196.8929484749078
-53.67974828100182 -32.4500324155038 196.31009543696953
-55.33417669354638 -33.45015364064751 194.9245919450551
-53.644741099145925 -32.428870166753065 194.74662022200988
-54.74101334286242 -33.091579493529245 193.5615605939307
-55.82785984040738 -33.748590847073395 192.36785658014898
-54.147650500407465 -32.732884751314266 192.19835126624022
-53.014657058586835 -32.047977033022214 191.81831585216253
-55.215594017891135 -33.37846903346965 190.2215932747035
-55.19512680258172 -33.366096363673044 189.4371346209096
-54.070951252512394 -32.686519163543416 189.06514492268062
-55.70198892085711 -33.672500411660145 187.65845476962946
-52.923145871517086 -31.99265745567901 187.90583858598578
-55.11115003985875 -33.31533143351271 186.29747388204834
-55.08961489471031 -33.30231318770274 185.5120982660469
-53.97056924708275 -32.62583707328708 185.14458529874923
-53.39908774204954 -32.28036985413934 184.56709796080432
-55.0236638987639 -33.26244504329392 183.15482151721795
-54.45545227370358 -32.918954504635806 182.5801465844383
-54.97854543802382 -33.23517040881 181.58234987725774
-54.41119392447806 -32.89219981757009 181.00838453747443
-53.29547441269664 -32.21773439097399 180.64369998573653
-54.36599835167606 -32.864878567947514 179.4358492703556
-54.88543166728213 -33.17888205099057 178.43505254180832
-56.47487069475857 -34.13971643669002 176.99416223568508
-56.448546766051976 -34.12380331550025 176.20497431150324
-56.421944040783686 -34.107721658545046 175.41557420050037
-56.39505888483171 -34.091469268955386 174.62596564085464
-56.36788743429759 -34.075043810959706 173.83614732391314
-53.65993792491851 -32.438056824752124 174.14172845485245
-55.781375834548335 -33.720490724676544 172.47859092798944
-55.75410056421487 -33.70400250640419 171.6886969279156
-56.25625934173046 -34.007563330177234 170.67475531511892
-54.09947025044381 -32.70375922961987 170.77249148770184
-55.67048947476754 -33.653458629993686 169.31773159846614
-56.169333193124544 -33.955015461933684 168.30144583285258
-56.66411695070002 -34.25411800034241 167.28236213891572
-52.92411883770074 -31.993245625057774 168.05563325589432
-55.55468413826331 -33.58345295664778 166.1533865040958
-53.407583700086796 -32.28550575962582 166.25811267165
-54.96954529078937 -33.22972971508742 164.79679439571194
-55.98672744853726 -33.8446281646592 163.54884466348344
-51.72315461545457 -31.267248779138487 164.55012142665993
-54.35491404235688 -32.85817797399488 162.64874732383444
-55.89079520998777 -33.78663601025626 161.16947748737505
-55.339325554727615 -33.45326618714007 160.60713837822314
-55.825035210936335 -33.746883325692764 159.5820802085206
-53.710351488625996 -32.46853241058992 159.70893576329843
-54.20291705898299 -32.76629402901581 158.68835687446293
-54.691101240849875 -33.06140704712069 157.6648958811856
-56.20087811991136 -33.9740847372108 156.16894875640733
-56.16493135836207 -33.952354501603125 155.37337294056314
-56.63621196682045 -34.23724911290452 154.33955687337476
-56.09179953376166 -33.90814546272192 153.78150235109428
-55.54662037886858 -33.57857832026946 153.2230018422943
-55.00066530845614 -33.24854212785753 152.66404902881342
-52.9077917878521 -31.98337573345425 152.80473690081013
-53.3919795384467 -32.27607286235538 151.77871832728985
-55.39754090026682 -33.488458040871166 150.03763855698543
-53.83616841459 -32.54459020625205 149.95458529330807
-55.320359622897286 -33.44180106067445 148.44346562129311
-53.764265714443034 -32.50112418740417 148.3634338493827
-53.21824935478261 -32.17105094492872 147.80444503403513
-51.642503780439476 -31.21849441097571 147.7128585201613
-55.160446725435364 -33.34513185352519 145.25210364132136
-55.615665508385554 -33.62031690442282 144.2095273441403
-52.563882502945546 -31.775478569242697 144.85843411503186
-55.03543212799505 -33.26955907479096 142.85590766951955
-52.995556285081776 -32.036430393195296 143.02694206072897
-55.44140552660339 -33.514974717869435 141.010776346574
-52.91764319376124 -31.98933102295033 141.43237038488988
-50.341130612658795 -30.431799189193242 141.82527508871027
-53.336400183662455 -32.24247449570619 139.59378439129205
-52.297078532618364 -31.614192464837355 139.28073231905347
-55.211447676317135 -33.37596252174426 137.00651174454495
-51.716157883900834 -31.26301917350523 137.92674948411252
-55.11547355567682 -33.31794504913011 135.40297490799108
-55.06659609125817 -33.288398053185375 134.60081758957108
-55.01711217643018 -33.25848445091198 133.79839189844077
-51.553488901491875 -31.164683880937623 134.73392147707204
-52.49774025452599 -31.73549481048859 133.4435335398681
-53.42575280089494 -32.29648919246717 132.14531651424028
-51.91793329112389 -31.384994754887693 132.0901248414412
-51.3823042256904 -31.061200752631645 131.5367047532665
-54.706938770687195 -33.07098101818166 128.97830418052462
-52.267042109178036 -31.59603509738507 129.43892560387934
-52.21909651727825 -31.5670514292206 128.6371752799014
-52.65058479099294 -31.827891111173933 127.58335209412874
-52.12132030355657 -31.50794457037088 127.03284739772211
-52.548818129513826 -31.76637198022481 125.97731914288742
-51.060497842593314 -30.86666504973767 125.93083144494138
-50.04291394583535 -30.251523744259956 125.62845793118026
-51.44188693693692 -31.097219194842513 124.07433126909314
-51.865388688382566 -31.353230931158677 123.01714651450789
-53.214361313180866 -32.168700578541966 121.44260055063864
-53.61609363922214 -32.411552443907524 120.37724729338746
-53.55543496509711 -32.37488356961746 119.5705897188125
-52.11398370543588 -31.503509511443447 119.54213714883129
-50.65422672257443 -30.621069430602443 119.50711291289102
-52.45775090876651 -31.7113207856892 117.67104483165092
-49.60191830344997 -29.984936747324163 118.40866713278638
-51.878570527868284 -31.36119950650237 116.31794443420608
-50.898251700074276 -30.76858536880339 116.03039508231198
-52.2095786810684 -31.56129778648893 114.44261583224792
-53.04014319266826 -32.06338369761309 113.10795743963405
-47.91650731601718 -28.96608619516916 115.15284587736484
-51.11402281618857 -30.89902151905479 112.5437576056656
-52.83221207722096 -31.93768691898559 110.6802890282372
-52.321951539374105 -31.629228486825937 110.13627211216975
-50.47095463732909 -30.510279322647094 110.38296619982381
-52.1800847146966 -31.54346834064621 108.51698812113364
-50.34099811021206 -30.431719089922485 108.76693937191502
-52.466207882428144 -31.71643312466703 106.62935808265809
-52.816899630729324 -31.928430366916587 105.5500188874434
-51.88431107529102 -31.36466973421237 105.27553824516926
-50.94523462994135 -30.796987096568227 104.99965094253209
-50.87131935070091 -30.752304450241393 104.18929423561188
-52.074051388336265 -31.47936996113249 102.57273033277272
-51.992282921521074 -31.42993997154258 101.76076374046988
-50.64315234180476 -30.614374838573504 101.75678258907537
-50.56489439051295 -30.567066996463353 100.94548813210754
-50.90696214504163 -30.773850934134742 99.86444140054154
-49.982134092418875 -30.214781615678252 99.59148980605097
-51.56568515998792 -31.172056661105533 97.69800525181257
-51.88211924554112 -31.363344747625973 96.61292299680173
-50.979670087951156 -30.81780373160182 96.34347547895102
-49.65606637856373 -30.01766988875919 96.3438319869202
-51.996783109256526 -31.432660387389667 93.898920227998
-51.107573273888306 -30.895122695691963 93.6309225282217
-50.61371545545698 -30.596579898269457 93.08985546186123
-51.30751386315062 -31.015989108268514 91.72978812526075
-50.816415785663835 -30.719114606357376 91.18896424649827
-50.71650605319644 -30.658718010601753 90.37475082328173
-50.61512521549598 -30.597432114615998 89.56043188608183
-50.12516574167147 -30.301245911866694 89.01968567948363
-50.40784926892105 -30.472131393194935 87.93153456999416
-51.0564801368757 -30.864236299884187 86.56886614483237
-50.57103523712887 -30.57077920969323 86.0282924840025
-48.55309568009476 -29.350911268146657 86.58307912764833
-48.451836899713676 -29.28969915723064 85.7687732794456
-49.11264266926172 -29.68916393359165 84.4065377845964
-46.284105007345815 -27.979280006096985 85.50626398701878
-49.99669195351498 -30.223582012095836 81.95483334514309
-49.514577344855155 -29.93213812161589 81.41424628846606
-48.66555334118203 -29.41889323275183 81.14777624530716
-47.8104767254797 -28.901989469492193 80.88135195365825
-49.856399231141204 -30.138773429073854 78.4233753881585
-49.72633939683979 -30.060150745954278 77.60932117033751
-49.59432486936366 -29.980346428067154 76.79542444120446
-49.46032327011666 -29.899340902174373 75.98171124069438
-49.66118954188607 -30.020766900597053 74.89602724681357
-49.52042022597695 -29.935670211237653 74.08307939598284
-49.04605706229406 -29.648912159436605 73.54189901529821
-49.23250570983365 -29.76162253625907 72.45803693665773
-48.75931133232458 -29.475571029299264 71.91669246678657
-46.598681204515636 -28.169444977472597 72.7363624922996
-46.80858197374663 -28.296332434729834 71.64974478212245
-46.67158154140317 -28.21351407933794 70.83634285902316
-46.86497501442643 -28.330422683970365 69.75155196951245
-48.00334100165279 -29.018578168471326 67.85990567643275
-45.58258854620473 -27.555205142987123 68.94097769608268
-46.10131436350692 -27.868780935073545 67.58553929154826
-46.591138590534186 -28.16488537956028 66.2346063012319
-47.05222991535643 -28.44362045034832 64.88919343928535
-47.4847953267777 -28.705111274578098 63.55028090189579
-46.71934183343826 -28.242385731578178 63.27273079128364
-46.84355774940304 -28.317475698067557 62.20138242355667
-46.955569004879855 -28.385187805287146 61.13338016964956
-46.200324409180155 -27.92863365969398 60.85303681213437
-46.30722902142903 -27.993258741664985 59.78651230921367
-44.37668409069966 -26.826221868581772 60.56148735380809
-43.90793198765753 -26.542855768224396 60.01929685047981
-45.46972395184998 -27.486977182486967 57.63787830301013
-45.279886810789144 -27.3722184219048 56.83637843622772
-44.81409835263047 -27.090643879362354 56.293339541426576
-44.62150444710901 -26.974218622587976 55.492788916567
-44.42586772181169 -26.855953945854985 54.693310901492545
-43.13937971480137 -26.078256976951415 54.92315760555562
-44.2852804948542 -26.7709673313855 52.84522527719714
-43.82023094801449 -26.489839469332825 52.30191976775979
-43.865363610124405 -26.517122688710046 51.25746697152062
-43.146948495972595 -26.08283239323441 50.96400245663287
-42.425070890145676 -25.646448981254064 50.671990074287685
-42.216951347539364 -25.52063829621654 49.87734283942969
-42.74549671564785 -25.840150121018727 48.34346361816283
-42.520307294809285 -25.704020495976756 47.55646178444387
-42.52494629051404 -25.70682482285636 46.53075098115505
-41.82613511665423 -25.28438533738484 46.22808936757054
-41.36067097457128 -25.003006847683686 45.68498224611483
-41.58376632124348 -25.137870580526915 44.42661215462929
-41.34043886633697 -24.990776302849522 43.64909931012216
-41.09333877160173 -24.84140142049989 42.87374620688535
-40.84241471663319 -24.689714909696328 42.10063503691749
-40.79725369125254 -24.66241454439193 41.10296492188528
-39.473925683323884 -23.86244736628899 41.479212771508266
-39.860489443732625 -24.096129657238972 40.020161843449884
-38.540434473391265 -23.29814106844031 40.3944073706745
-39.52881209190253 -23.895626838894266 38.27221629795528
-39.446692319494126 -23.845984480985713 37.29925247099509
-38.974997825052604 -23.56083967079182 36.760136608048654
-38.87784578229498 -23.502110130552293 35.79825065499187
-38.58712836352622 -23.326368068324015 35.05260117908309
-38.11280656035989 -23.039635019436474 34.51551577290538
-37.99292340100096 -22.96716425472822 33.57162706113848
-37.68936566528075 -22.783660071501938 32.83655458712342
-37.21193080936621 -22.49504514600682 32.30207530682684
-36.90288446903702 -22.308223037432878 31.57181272703841
-36.7525102062876 -22.217320045952142 30.654622223875666
-36.431407931265426 -22.023209984581953 29.935537958461826
-36.10585984527264 -21.826412378751712 29.22081033864912
-36.07704205339339 -21.808991688257233 28.153752659175694
-34.66671143435029 -20.95643041943468 28.71945449332916
-34.805147441398915 -21.040116596439177 27.456886954620582
-34.16837420926849 -20.655179768572747 27.109333793416642
-33.6828374717413 -20.361667161375006 26.582681456145263
-33.046011384305885 -19.97669838186172 26.235184045022738
-32.857801887799 -19.862923551350534 25.355833854411056
-32.93524334877309 -19.909737815563517 24.159464291808447
-32.30468831523256 -19.52855996109524 23.804890486158293
-32.21547111954145 -19.47462712823169 22.807193806293792
-31.71873387754542 -19.174343685761375 22.293816438954458
-30.95856052091609 -18.71481004683866 22.092742079233485
-31.101303197460066 -18.801099655662462 20.824742023626783
-30.475468629120947 -18.422775377332442 20.463906019477026
-30.4539771882694 -18.40978355127845 19.399695979662766
-29.591476038377287 -17.888391570714457 19.31238926448929
-29.438148931776993 -17.795703550768657 18.40619972935503
-29.042411335488765 -17.556475569289255 17.78310193130347
-28.53104045166357 -17.24734592006649 17.29235224773579
-27.4491829773788 -16.59335048913187 17.449543914326828
-26.9414742173589 -16.28643463635929 16.952453810446983
-26.771247026489387 -16.183530318835302 16.074948761586555
-26.582489550516218 -16.069424228360848 15.232086647958786
-26.274112675676225 -15.883006819464557 14.53147323135665
-25.855730958685946 -15.630090203549768 13.954149116071296
-25.332974923617346 -15.314078097930786 13.487513620181454
-25.20413512843299 -15.236192942652982 12.638642426202503
-24.772421312798674 -14.975216917984989 12.09814162503269
-24.808577551054757 -14.997073784699243 11.166360593798384
-23.90063017435751 -14.448209031251343 11.047156597003836
-23.367669096816968 -14.126027858719407 10.61397922628175
-22.74067052886178 -13.746999929077996 10.260681158488596
-27.618208396954802 -16.695528321925963 7.280861332278345
-10.682040976496825 -6.457418058976647 20.227833590072958
-26.785990950100782 -16.192443192208273 6.624738205447326
-29.3919722265929 -17.76778919520535 5.846736858384611
-29.237885849245643 -17.67464218725867 5.553394553589353
-29.869769744767343 -18.05662335425626 5.204530262344795
-10.824610641669356 -6.543603080413373 15.612652167780453
-10.020821287961635 -6.057703063771834 15.34261715638798
-10.19808236784784 -6.164859449047775 14.260362404101246
-30.29673927321241 -18.31473140211718 4.165709776568679
-30.242100950482364 -18.281701900293932 3.9402909113090026
-32.873921661003145 -19.872668141810735 3.653741791045805
-32.37928173670239 -19.57365255229012 3.4609649683680845
-33.25919732808874 -20.105571765359525 3.248716013142151
-34.29560114852121 -20.732089933673823 3.045089346817992
-34.471940169682014 -20.838688923721833 2.8583091013087163
-34.2795199957693 -20.722368689726355 2.678416128223494
-34.740038752256524 -21.00075763629388 2.497157622825664
-34.70071278519232 -20.976984631634394 2.3223921133752206
-34.673059507540124 -20.96026790353963 2.1501077564433686
-34.526677717182324 -20.871778408073215 1.980509159419618
-5.892781063765018 6.164724110064242 435.76110691139485
-6.412298071099852 6.7082160514837 434.99393519692427
-6.931757726086432 7.251647993829678 434.2254679227762
-6.4122883694009225 6.7082059020658535 433.4889872361899
-6.9317454066466055 7.251635105866101 432.7204681205907
-7.970471890732765 8.338297266044322 431.9320609235641
-6.412273626164665 6.708190478451258 431.2315658146977
-6.931726684842803 7.25161552007901 430.46295616149894
-6.931720378685925 7.25160892290241 429.7104556282
-8.489692045755438 8.881478655860708 428.90182965071085
-8.489680338013448 8.88146640782391 428.1492245678353
-7.970414214301214 8.338236927931582 427.4166532777503
-8.489656736761917 8.881441717409862 426.6440160966554
-8.489644842301752 8.881429274038124 425.89140788573883
-9.527892989904522 9.967591023218555 425.094712528444
-6.41222797762008 6.708142723294508 424.45926507758134
-8.489608778478608 8.881391545923398 423.6335817199037
-9.008761649283931 9.42450254645628 422.85944610756593
-7.451032244741395 7.794886256078803 422.1676459476912
-7.451023942504729 7.794877570706312 421.41510128841793
-6.931642048106457 7.251526977483671 420.6803514586668
-8.489547376337903 8.88132731016559 419.87051341327003
-43.36958289721371 45.37102438335973 414.7755996726669
-43.36791347368926 45.36927791843261 414.01545280687236
-43.36623524068075 45.36752223747689 413.2552840429969
-43.86741226881208 45.89182783704002 412.38873814711917
-42.85966297848632 44.83757242185545 411.8402101359364
-43.86389160012427 45.88814469474974 410.86789778864585
-43.359432828727286 45.360405904369934 410.2143241228127
-43.35770954481574 45.35860309347928 409.4540146724961
-41.845949388081884 43.77707746305017 409.0083439825649
-44.358840397508466 46.40593464001748 407.7172849506214
-42.84965137362879 44.82709879638425 407.27935405904935
-42.344782761962705 44.29893125221895 406.624541294722
-43.34895382797494 45.34944331338134 405.6520557882843
-44.35127796276029 46.398023210198794 404.6740788554688
-42.84279621444114 44.81992728183702 404.2382353026034
-44.347435422906266 46.394003342868636 403.15230100441744
-44.34549855817236 46.391977094719614 402.39136480923327
-43.33995979269535 45.34003421680456 401.84938966237064
-43.33813164044453 45.33812169805737 401.0887738566589
-44.33962472273145 46.385832190544605 400.10837989773233
-43.33444539183767 45.334265334582035 399.5674448581062
-44.33565536268937 46.38167965046411 398.58623903116023
-43.33071877839602 45.33036674349508 398.0460028324
-44.83241183889492 46.901360696231364 396.9515432361919
-45.330588223463096 47.42252717701181 396.0763543434683
-8.489199724229039 8.880963614431058 400.3021062942316
-42.82131630082178 44.79745610228046 395.11215564056187
-43.32122169340543 45.32043138221433 394.24186662307176
-44.32141578965054 46.36678294239373 393.2577527549148
-42.81572198321663 44.791603615271924 392.8299774162139
-42.31185311471297 44.264481950923056 392.178141125377
-41.80768829689993 43.73705067964613 391.52543571716325
-44.31302893905717 46.35800905116971 390.21220477681806
-43.30947381774666 45.308141359637226 389.6758966621917
-8.489067155891233 8.880824928262427 393.528231146543
-44.806528877626754 46.874283274952155 387.8129019827937
-44.30445353283565 46.349037902756876 387.1661337111914
-44.80204491606201 46.86959238525717 386.28933129324486
-43.29937939355909 45.29758109284758 385.87005258065864
-44.29789484853992 46.34217654497509 384.88123168427046
-44.79522393499612 46.862456626100986 384.0037106804746
-44.79292457198322 46.86005115091872 383.24177268079546
-44.29122446242434 46.33519833050128 382.5960243826713
-44.288975737276054 46.33284583004547 381.8342183095433
-44.286714224413195 46.33047995174114 381.07237758961514
-42.28329338319794 44.23460423044737 380.76554763201085
-44.78123043937308 46.847817351551676 379.4315348596153
-43.78039209410447 45.80079181121841 378.90268511976376
-44.277538368214536 46.32088064348138 378.0246693908342
-43.77590654955676 45.79609926548816 377.3791101331325
-44.272871170706104 46.31599806177755 376.5006049714792
-44.769198325902444 46.83522997401213 375.62039907637813
-44.26815002882625 46.3110590462501 374.9763917978034
-42.26703642860281 44.21759704167446 374.67590111597406
-42.26495106483506 44.21541544148294 373.9145445227319
-44.26096539838691 46.30354285584492 372.68980371101594
-44.258542644871035 46.30100829587223 371.92753241204775
-44.75429525153201 46.81963914501452 371.0458203224713
-45.24937915262519 47.337570428825664 370.1623787726464
-44.251189273300696 46.29331557718484 369.64049963361555
-42.75202145464792 44.72496340243489 369.2306931429205
-43.74787779309744 45.766777023774075 368.23464643825275
-43.24671700792948 45.24248841676283 367.59034140307165
-7.969521400063981 8.337302911650557 371.72356277991656
-40.24065305225473 42.097699098541824 366.7496344678979
-42.740636883922285 44.71305345077105 365.42129147804934
-42.738319341870906 44.710628957614816 364.65929983412485
-7.969461335049986 8.337240074725862 368.7129343482507
-41.234599115778444 43.13751428862003 363.4814908231147
-42.23216022782269 44.18111135630958 362.4900474302852
-41.23034650263246 43.133065423727864 361.9585547260358
-44.71741942693615 46.78106155618088 360.3663801990518
-9.526184025506655 9.965803192665753 364.8748378875382
-41.723632712526076 43.64911605557511 359.55866626592984
-43.71519903167208 45.732590186308705 358.3220468921222
-41.71908936170702 43.64436303590041 358.0349298873454
-43.21240473458058 45.206592683238 356.9175324873157
-45.19655165636272 47.28230502249891 355.6618494138808
-43.20726352595371 45.20121421551045 355.39222442007326
-42.20861518233892 44.15647974213696 354.8691563345734
-44.19589754900997 46.2354722223862 353.621423203986
-44.68913109430226 46.751467759239404 352.73330848365254
-43.19679175419362 45.19025918712131 352.3411177046734
-43.19413361373925 45.18747837745442 351.5782372692458
-42.19629583498191 44.14359187529613 351.0572699501913
-42.691536663866046 44.66168732888143 350.17422402607855
-41.69308874520089 43.6171625297697 349.65168543102845
-44.17585548146206 46.214505243350125 348.2776717168048
-44.66828081888459 46.729655274747294 347.38758208060625
-43.674170162956585 45.68966789657112 346.87594973467117
-42.67829706073851 44.64783673784049 346.35995718143914
-44.1640091294879 46.20211219992272 345.2231353275356
-43.16945889442453 45.16166495669052 344.7104323118914
-41.177540368771005 43.077822365645034 344.4341569076922
-43.65962996920648 45.67445669459257 343.0584328688769
-44.15186449387938 46.189407107516665 342.16787586727685
-41.17008176181861 43.07001955511985 342.14684881444776
-42.162424906669855 44.10815785422252 341.14159583098103
-7.449885821627633 7.793686927250314 345.40295841667194
-41.659989688429626 43.58253600095585 339.73799765708554
-43.64156985678471 45.65556313495203 338.4759256637586
-42.64767318590842 44.61579961691816 337.964805773549
-41.65195871672468 43.57413441189951 337.449217739585
-44.620429921375624 46.67959612977488 335.924857180016
-43.629143189523134 45.64256299555329 335.41998899724433
-44.6137007805228 46.672556449120435 334.39567790163795
-38.6519430472559 40.435672499260875 335.1133409632785
-41.63822681031042 43.559768798510326 333.63370658134164
-40.14386666939886 41.99644616864997 333.23641598591786
-42.128595187522 44.07276694405451 331.982198599576
-41.62977293158275 43.5509247859037 331.34386540710835
-43.60661597095228 45.61899617948568 330.07024480950764
-42.1197219486685 44.06348421847848 329.69132551702813
-44.093243986755006 46.128081351527534 328.40979792169446
-44.58232687540417 46.639734685131785 327.5118510166247
-44.57872668501325 46.635968351330554 326.7467208973804
-42.107617924599104 44.050821611773436 326.6361641155936
-43.5864771599629 45.59792799244278 325.48281580687853
-42.595903552847034 44.5616408925995 324.97960205773506
-40.6118020112009 42.485976027700104 324.7227414839641
-42.095191805620445 44.037822045960056 323.5802287833272
-43.0796801094841 45.06774301489333 322.55576419760735
-43.07627234498548 45.06417798715198 321.7910723769579
-6.411219686429023 6.707087900970683 326.63013715699356
-43.561956557995636 45.572275801311775 320.1284586418708
-43.06591209094057 45.05333962285404 319.49668727407425
-8.48720126054201 8.878872924629214 324.27679551287036
-41.57859714529746 43.49738731350305 318.36009660259003
-44.52970347254105 46.584682790809985 316.7951067799878
-44.035059068444134 46.06721128612518 316.16645190742156
-44.0312126465593 46.06318735761428 315.400774580709
-45.007560551485874 47.084592260355734 314.3580234856386
-42.055864085443226 43.99667941022543 314.40758541285624
-43.0372439038225 45.02334844171118 313.3759597861883
-43.524878382882285 45.533486523786436 312.4747633995004
-42.045524151625756 43.98586230390309 312.1132468898805
-43.026086482856584 45.01167612242926 311.07977585636024
-43.513256398939745 45.52132820264026 310.17755530742477
-41.54223799316605 43.45935024079653 309.95111906022834
-41.538794940354755 43.45574829623957 309.18635096638684
-41.53532800496182 43.45212136695549 308.4215233281569
-43.98713257172688 46.01707305315391 306.9745003578161
-43.98295802373445 46.01270585600554 306.20811567361795
-43.48928181837926 45.49624723098857 305.5815530698673
-44.46317845095082 46.51508773881635 304.5335682586837
-43.48106646339376 45.48765274963862 304.0490682238808
-43.4769156577774 45.48331039054153 303.2827339330112
-41.018130969527476 42.91105646067527 303.19999636746945
-43.46852648376885 45.47453406868019 301.749884572718
-42.97498039808703 44.958211568165204 301.1235936190614
-42.97085371376179 44.9538944435208 300.35731064825455
-40.51145279653519 42.3809958466308 300.273208845801
-42.47295005021339 44.43301326942794 298.96424288156516
-41.48798352828823 43.40259201338375 298.47364308325723
-43.930524388107095 45.95785248639406 297.0066156586929
-42.460643273592076 44.42013855344347 296.6655552773803
-41.966797351463626 43.90350237947759 296.0386257376441
-40.490013483610774 42.35856714143064 295.6827995603843
-39.501423634266715 41.324355346817946 295.1841533551817
-43.90732944289557 45.93358712909845 293.1698884806105
-42.92793322251283 44.90899323569463 292.69100957391976
-42.43522206875582 44.39354419796596 292.06646343796615
-42.918973254337494 44.89961977836808 291.15696428370603
-39.976169437124916 41.8210099595318 291.22584392442633
-43.39695016528706 45.39965460998665 289.477787737611
-43.39219703424396 45.39468212904384 288.71020981429945
-41.9249689487081 43.85974365839799 288.37462084036935
-40.452148503501625 42.31895474903389 288.0273665284417
-43.86341160889279 45.887642552639704 286.25942799905056
-45.31034233813577 47.40134697431016 285.0385468758408
-42.881798560410495 44.860729527829974 285.0180705312198
-5.891433868929583 6.16331474419894 290.52571487951025
-42.385635108995324 44.34166887406159 283.62860870252695
-42.86728388339624 44.84554502014653 282.7148312139575
-39.934044853203766 41.776941388968076 282.8038217790374
-41.3970725643274 43.30748564419507 281.6152691328045
-40.90445682667787 42.792136425884756 280.9909282192846
-42.84741954511431 44.82476397231666 279.642830643231
-44.77665648536641 46.84303231639796 278.26785662395736
-44.770838776934454 46.83694612940956 277.4982390685608
-45.24618680111436 47.33423075505981 276.5724335951425
-43.31117482932659 45.30992087036141 276.41917399543837
-43.30578137188075 45.304278512908596 275.6503452034336
-43.30034683539736 45.29859318068198 274.88144325743224
-42.8111840269144 44.78685623906295 274.26395638614974
-43.772050547845694 45.79206531505637 273.190032385378
-43.28379227934186 45.28127465658574 272.5742489765543
-41.82637105257223 43.756595616593415 272.258052264446
-43.27254265874753 45.26950588280024 271.0357242748635
-42.78409096529112 44.75851287310431 270.4195796118768
-42.29515802683439 44.24701640966995 269.8025222315187
-42.28975656097126 44.241365674223346 269.0336830627036
-40.83037940332927 42.71464044006973 268.71372318198394
-39.85250047670365 41.69163386126413 268.2379039881498
-43.23773115858143 45.23308788388609 266.4181764785384
-43.231769455419794 45.226851057026266 265.6482905158488
-43.70631811464312 45.72329942822089 264.7210375077556
-43.219704830860366 45.21422966805973 264.1082622438648
-43.21360096963269 45.2078441227514 263.3381236823856
-43.20744868097884 45.2014079151635 262.567893172005
-43.68098146082506 45.696793525664795 261.6388234741879
-43.19499691008519 45.18838151363755 261.0271686675009
-40.779165722751046 42.66106332461111 261.0306937831197
-43.66144528947085 45.6763557891763 259.3262239946162
-39.79944950180848 41.636134663099504 259.79304141407874
-43.169490069607114 45.16169757056123 257.9446535123663
-43.16298458153634 45.15489186393075 257.1738016488917
-43.156426432629864 45.148031066245636 256.40285288241876
-44.58110984823319 46.63846149397427 255.14187319361562
-42.66445817365281 44.63335920678164 255.0212596052864
-43.13643067230497 45.12711253144177 254.08945321141928
-43.606991707682624 45.61938925590504 253.1552106745612
-41.20529320870089 43.106855957693874 253.18412952254133
-44.06876355098257 46.10247118020126 251.44624041168757
-42.63142559357841 44.59880222246494 251.16610597109872
-44.05388024950289 46.0869010365838 249.9013534785404
-44.52062187181079 46.575182087767736 248.96075669590954
-44.5127787154155 46.56697698141713 248.18765757130814
-44.97768410455526 47.05333706001429 247.2441087936157
-44.49689682819252 46.55036216881551 246.64115088918894
-41.63477447312271 43.55615714111685 246.86171952886747
-43.53372832096376 45.5427448732946 245.4326827073695
-41.62141764333575 43.5421839135812 245.31940899352716
-43.04385923288135 45.030269058327306 244.05464234157375
-42.08495709446927 44.02711501817293 243.6134223589441
-44.447633941755846 46.498825873734916 241.99906090931677
-42.546334502869705 44.509784304988045 241.90380529463087
-42.538848091411516 44.50195240682065 241.13128573480262
-43.47868470813976 45.48516107993637 240.0207771674416
-42.99761724162468 44.981893068228125 239.41737444867346
-43.46234862758646 45.468071113660486 238.47354961423662
-43.4540751811211 45.45941585999563 237.69976766481813
-43.44573042346937 45.45068600423966 236.92587419124675
-42.49255933840551 44.453527496987235 236.49394218504654
-42.95722980180495 44.93964180837198 235.55002083574664
-43.890539574613626 45.91602243346789 234.42922857460962
-44.35055981922029 46.397271925406834 233.47814031895953
-41.98750283009314 43.925163385026 233.57050622731526
-44.3319017439514 46.37775280782672 231.9273684180278
-44.32245010199378 46.36786498670706 231.15179923986668
-44.31291549291563 46.35789036965815 230.3761084152802
-44.30329696224549 46.347827958161105 229.60029507543217
-43.82643028608495 45.84895459700915 229.00329997742278
-42.87995536778268 44.858801274614855 228.58163773069182
-44.27392815597838 46.317103825341725 227.2721161327765
-44.72909644075516 46.793277446750146 226.31394196704554
-42.38356766461707 44.33950602021263 226.43259565563017
-42.374651494726265 44.33017838239604 225.65782452148784
-42.83429055102639 44.81102909475734 224.7061603652328
-44.22320865127475 46.26404369123635 223.38928610091642
-42.81544296106014 44.791311716659585 223.15510891479323
-42.80589052751024 44.781318452566175 222.3793920257896
-41.860318855512425 43.792110059944456 221.959064789805
-43.71729957455497 45.734787666108865 220.46459016720124
-42.30992904963177 44.2624690931116 220.23098370281951
-41.832747640101104 43.76326647411448 219.63352217962998
-41.8233869236972 43.753473774627054 218.858086924813
-42.28089846685146 44.23209879228786 217.90329462052736
-41.80440388876968 43.733614700985335 217.30683652911014
-41.794779380145144 43.72354603566022 216.53101448514514
-42.71587099985825 44.68714465814078 215.392119046894
-42.70539889074905 44.676189276834386 214.6150935421627
-41.7653609596997 43.69276999904226 214.20276400588446
-42.22035696215416 44.16876338755648 213.24435105483025
-42.67338814576425 44.642701283770734 212.28317725381515
-41.26959845889496 43.17412879915624 212.05464371734394
-42.188784183361015 44.13573357217021 210.9130473385317
-43.56158247183721 45.57188445163577 209.5737378115189
-43.54966046914183 45.55941226631933 208.79475095593008
-41.69339176779643 43.61747953640551 208.7654433958326
-43.066653751891174 45.05411551034998 207.4267641197442
-43.05476808211651 45.0416813346643 206.64782472448803
-44.41309286491975 46.46269077778363 205.28961991806474
-42.111508731164676 44.0548919732518 205.46838619329182
-42.10003802974176 44.04289191608762 204.68999436738358
-42.54790017152694 44.51142222691577 203.7218418488315
-41.61642454293187 43.536960389049966 203.32119679529134
-39.75250236878671 41.58702098999575 203.2814604175023
-43.423948147312586 45.42789850856609 200.99657590667408
-42.95543566444677 44.937764874253936 200.41084845785048
-41.570023485759634 43.48841799238075 200.2069480678757
-42.47360844520835 44.43370204836872 199.0443719479125
-42.00411932842972 43.94254670994711 198.45741886189862
-40.61485758862932 42.48917261546389 198.24854240369035
-42.434780151202894 44.39308188657789 196.70350307941268
-41.051260896013865 42.94571528379551 196.5020189332246
-41.95323236543779 43.8893113896035 195.33737553623646
-40.56831735300777 42.44048461746776 195.13410964119967
-42.381164345935794 44.336991791963136 193.58006888935188
-41.913700972285085 43.84795568168972 192.99563784955546
-41.445593515450526 43.35824576475534 192.41040719653128
-41.43244380112172 43.34448921074696 191.62985995878248
-40.963977513562064 42.854403903585364 191.04418988381028
-42.311020209528294 44.2636106084079 189.6720026654255
-41.39217508625267 43.30236215482068 189.2872151578539
-41.83091828608315 43.7613526981404 188.30762247258394
-41.816617151558894 43.74639158761399 187.52568282455618
-41.8021668977737 43.73127447619543 186.74357240609103
-42.237182968488646 44.18636588895672 185.759585003867
-42.22195016569792 44.17043011506461 184.9765644257742
-41.307779360572376 43.21407169242986 184.59726612961717
-39.935494914401474 41.77845836832465 184.40965246861796
-42.175282782838586 44.12160910217555 182.6264113640166
-41.71221560383832 43.63717206437077 182.04711818774592
-40.79881147271679 42.68161569660043 181.66870166890467
