ply
format ascii 1.0
element vertex 898
property float32 x
property float32 y
property float32 z
element face 0
property list uint8 int32 vertex_indices
end_header
-1.902021251518543 -2.549899202953096 176.95681399999998
-2.0890620736534773 -2.8006509981292975 177.582469
-1.8085005414985846 -2.424522904581503 177.113228
-2.0890620736534773 -2.800650998129298 178.05171
-1.9020212515185433 -2.549899202953096 177.426055
-2.089062073653478 -2.800650998129299 178.208124
-1.8085005414985846 -2.424522904581503 177.895297
-1.9955419615385022 -2.67527550132469 177.738883
-2.0890620736534773 -2.800650998129298 178.520952
-1.9955419615385015 -2.675275501324689 178.677365
-1.9955419615385017 -2.6752755013246894 178.364538
-2.0890620736534773 -2.800650998129298 179.146607
-1.9955419615385022 -2.67527550132469 178.990193
-1.8085005414985846 -2.424522904581503 178.833779
-2.0890620736534777 -2.8006509981292984 179.772262
-2.0890620736534773 -2.8006509981292975 179.615848
-1.9955419615385022 -2.67527550132469 179.459434
-1.9955419615385017 -2.6752755013246894 179.928675
-1.9955419615385015 -2.675275501324689 179.30302
-2.0890620736534773 -2.800650998129298 180.241503
-1.9020212515185435 -2.5498992029530965 180.085089
-1.9955419615385015 -2.675275501324689 181.023572
-2.0890620736534773 -2.8006509981292975 180.867158
-1.902021251518543 -2.549899202953096 180.55433
-1.902021251518543 -2.549899202953096 180.39791700000004
-2.0890620736534773 -2.800650998129298 181.179985
-1.9955419615385015 -2.675275501324689 180.710744
-2.0890620736534777 -2.8006509981292984 181.492813
-1.7149798314786258 -2.2991466062099093 181.649227
-1.9020212515185435 -2.5498992029530965 181.336399
-1.9020212515185433 -2.549899202953096 181.962054
-1.8085005414985844 -2.4245229045815027 181.80564000000004
-1.9020212515185433 -2.549899202953096 182.118468
-2.0890620736534773 -2.800650998129298 182.587709
-1.902021251518543 -2.549899202953096 182.431295
-1.714979831478626 -2.2991466062099097 182.27488200000002
-1.9955419615385022 -2.67527550132469 182.74412300000003
-1.8085005414985844 -2.4245229045815027 182.900536
-1.9020212515185433 -2.549899202953096 183.21336399999998
-1.9020212515185433 -2.549899202953096 183.05695
-1.9955419615385015 -2.675275501324689 183.526191
-1.9955419615385017 -2.6752755013246894 183.369778
-1.9955419615385015 -2.675275501324689 183.682605
-2.0890620736534777 -2.8006509981292984 183.995433
-2.0890620736534773 -2.800650998129298 183.839019
-2.0890620736534773 -2.800650998129298 184.151846
-2.0890620736534773 -2.800650998129298 184.30826
-1.9020212515185433 -2.549899202953096 184.46467400000003
-1.9020212515185433 -2.549899202953096 184.62108800000001
-2.182582783673436 -2.9260272965008913 185.246743
-2.0890620736534773 -2.8006509981292975 185.09032899999997
-1.9020212515185437 -2.549899202953097 184.77750100000003
-2.0890620736534773 -2.800650998129298 185.55957
-1.9955419615385022 -2.67527550132469 185.403156
-1.8085005414985837 -2.4245229045815018 184.933915
-2.1825827836734355 -2.9260272965008904 186.028811
-1.8085005414985842 -2.424522904581502 185.71598399999996
-1.9955419615385015 -2.675275501324689 186.185225
-1.9955419615385022 -2.67527550132469 186.654466
-2.182582783673436 -2.9260272965008913 186.49805299999997
-2.0890620736534773 -2.800650998129298 186.34163899999996
-1.8085005414985837 -2.4245229045815018 185.87239799999998
-2.0890620736534773 -2.800650998129298 187.123708
-2.0890620736534773 -2.8006509981292975 186.967294
-1.9955419615385022 -2.67527550132469 186.81088
-1.9955419615385015 -2.675275501324689 187.436535
-1.9020212515185433 -2.549899202953096 187.280121
-2.0890620736534773 -2.800650998129298 188.06219
-1.9020212515185437 -2.549899202953097 187.90577600000003
-1.9955419615385017 -2.6752755013246894 187.592949
-1.9955419615385017 -2.6752755013246894 188.218604
-1.9020212515185435 -2.5498992029530965 187.74936300000002
-1.9955419615385024 -2.6752755013246903 188.375018
-2.0890620736534773 -2.800650998129298 189.00067299999998
-1.9955419615385022 -2.67527550132469 188.844259
-1.9020212515185437 -2.549899202953097 188.687845
-1.7149798314786258 -2.2991466062099093 188.531431
-1.9955419615385017 -2.6752755013246894 189.157086
-1.9020212515185433 -2.549899202953096 189.626328
-1.9955419615385015 -2.675275501324689 189.46991399999996
-1.9955419615385022 -2.67527550132469 189.3135
-1.9955419615385017 -2.6752755013246894 189.782741
-2.0890620736534773 -2.800650998129298 189.939155
-1.9020212515185433 -2.549899202953096 190.095569
-1.9020212515185435 -2.5498992029530965 190.251983
-2.182582783673436 -2.9260272965008913 191.034051
-2.0890620736534773 -2.800650998129298 190.721224
-1.9020212515185433 -2.549899202953096 190.40839600000004
-1.9955419615385022 -2.67527550132469 191.190465
-1.8085005414985846 -2.424522904581503 190.56481000000002
-1.9955419615385022 -2.67527550132469 190.877638
-2.182582783673436 -2.926027296500891 191.81612
-1.9955419615385015 -2.675275501324689 191.346879
-1.9955419615385017 -2.6752755013246894 191.65970599999997
-2.0890620736534773 -2.800650998129298 191.503293
-1.9020212515185435 -2.5498992029530965 192.128947
-1.714979831478626 -2.2991466062099097 191.972534
-2.0890620736534773 -2.800650998129298 192.754602
-1.9955419615385015 -2.675275501324689 192.598189
-2.089062073653477 -2.800650998129297 192.911016
-1.8085005414985842 -2.424522904581502 192.441775
-1.8085005414985842 -2.424522904581502 192.285361
-2.0890620736534773 -2.800650998129298 193.06743
-1.9955419615385022 -2.67527550132469 193.223844
-2.0890620736534773 -2.8006509981292975 193.693085
-2.0890620736534773 -2.8006509981292975 193.53667099999998
-1.9955419615385022 -2.67527550132469 193.849499
-1.8085005414985846 -2.424522904581503 193.380257
-1.8085005414985842 -2.424522904581502 194.005912
-2.3696236058083704 -3.176779091677093 194.631567
-2.2761034936933946 -3.0514035948724842 194.475154
-1.9020212515185437 -2.549899202953097 194.162326
-2.36962360580837 -3.176779091677093 194.787981
-1.9955419615385015 -2.675275501324689 194.31874
-2.182582783673436 -2.926027296500891 195.257222
-2.182582783673436 -2.9260272965008913 195.100809
-2.0890620736534773 -2.800650998129298 194.944395
-2.0890620736534773 -2.800650998129298 195.882877
-2.089062073653478 -2.800650998129299 195.72646400000002
-1.9020212515185433 -2.549899202953096 195.413636
-1.9020212515185435 -2.5498992029530965 196.195705
-1.9020212515185437 -2.549899202953097 196.03929100000002
-1.9020212515185437 -2.549899202953097 195.57005
-1.9955419615385017 -2.6752755013246894 196.66494599999996
-1.9020212515185435 -2.5498992029530965 196.50853200000003
-1.9955419615385013 -2.6752755013246885 196.352119
-1.9955419615385017 -2.6752755013246894 196.82136
-1.9955419615385017 -2.6752755013246894 196.97777399999998
-2.0890620736534777 -2.8006509981292984 197.290601
-2.089062073653478 -2.800650998129299 197.759842
-1.9020212515185435 -2.5498992029530965 197.13418700000003
-2.182582783673436 -2.926027296500891 198.07267
-2.089062073653477 -2.800650998129297 197.91625599999998
-1.9020212515185435 -2.5498992029530965 197.447015
-2.0890620736534773 -2.800650998129298 198.229084
-1.9955419615385015 -2.675275501324689 198.541911
-1.8085005414985842 -2.424522904581502 197.60342899999998
-1.9955419615385022 -2.67527550132469 198.69832500000004
-1.9955419615385013 -2.6752755013246885 198.38549699999996
-2.0890620736534777 -2.8006509981292984 199.011152
-2.2761034936933946 -3.0514035948724842 199.32398
-2.089062073653478 -2.800650998129299 199.167566
-1.902021251518543 -2.549899202953096 198.85473899999997
-1.9955419615385015 -2.675275501324689 199.636807
-1.9955419615385015 -2.675275501324689 199.793221
-1.8085005414985844 -2.4245229045815027 199.48039399999996
-1.9955419615385015 -2.675275501324689 200.106049
-1.9955419615385015 -2.675275501324689 199.949635
-2.0890620736534773 -2.8006509981292975 200.262462
-2.0890620736534773 -2.800650998129298 200.731704
-2.0890620736534773 -2.8006509981292975 200.57529
-1.9020212515185435 -2.5498992029530965 200.418876
-2.0890620736534777 -2.8006509981292984 200.888117
-1.9955419615385015 -2.675275501324689 201.044531
-1.9955419615385017 -2.6752755013246894 201.670186
-1.9020212515185433 -2.549899202953096 201.35735799999998
-1.6214597193636502 -2.1737711094053007 201.200945
-1.8085005414985844 -2.4245229045815027 201.8266
-2.0890620736534777 -2.8006509981292984 202.45225500000004
-1.8085005414985844 -2.4245229045815027 202.139427
-1.6214597193636502 -2.1737711094053007 201.51377200000002
-1.714979831478626 -2.2991466062099097 201.983013
-1.902021251518543 -2.549899202953096 202.76508200000004
-1.714979831478626 -2.2991466062099097 202.608668
-1.8085005414985842 -2.424522904581502 202.295841
-2.182582783673436 -2.9260272965008913 203.390737
-2.089062073653477 -2.800650998129297 203.234323
-2.0890620736534773 -2.800650998129298 202.921496
-1.9955419615385017 -2.6752755013246894 203.547151
-1.9020212515185433 -2.549899202953096 203.07791000000003
-2.089062073653478 -2.800650998129299 203.703565
-1.9955419615385022 -2.67527550132469 203.859978
-2.089062073653477 -2.800650998129297 204.172806
-2.0890620736534773 -2.800650998129298 204.32922
-1.8085005414985844 -2.4245229045815027 204.016392
-1.9955419615385017 -2.6752755013246894 204.798461
-1.9020212515185435 -2.5498992029530965 204.485633
-1.714979831478626 -2.2991466062099097 204.95487500000002
-1.8085005414985844 -2.4245229045815027 204.642047
-1.9020212515185433 -2.549899202953096 205.11128799999997
-1.9955419615385015 -2.675275501324689 205.424116
-2.0890620736534773 -2.8006509981292975 205.89335699999998
-2.0890620736534777 -2.8006509981292984 205.58053
-1.8085005414985844 -2.4245229045815027 205.267702
-1.9955419615385017 -2.6752755013246894 205.736943
-1.9955419615385013 -2.6752755013246885 206.362598
-1.8085005414985844 -2.4245229045815027 206.206185
-2.182582783673436 -2.926027296500891 206.83184
-1.902021251518543 -2.549899202953096 206.675426
-2.0890620736534777 -2.8006509981292984 206.51901200000003
-1.6214597193636504 -2.173771109405301 206.04977100000002
-1.9020212515185433 -2.549899202953096 207.30108100000004
-2.0890620736534773 -2.800650998129298 206.988253
-1.9955419615385017 -2.6752755013246894 207.457495
-2.0890620736534773 -2.8006509981292975 207.613908
-1.9020212515185435 -2.5498992029530965 207.144667
-2.0890620736534773 -2.800650998129298 207.926736
-2.0890620736534777 -2.8006509981292984 208.08315
-1.8085005414985844 -2.4245229045815027 207.770322
-2.2761034936933946 -3.0514035948724842 209.33446
-2.089062073653478 -2.800650998129299 209.178046
-1.8085005414985844 -2.4245229045815027 208.395977
-1.7149798314786258 -2.2991466062099093 208.239563
-2.1825827836734364 -2.9260272965008918 209.490873
-2.0890620736534773 -2.800650998129298 209.021632
-1.7149798314786255 -2.299146606209909 208.865218
-1.9020212515185435 -2.5498992029530965 208.70880500000004
-1.8085005414985844 -2.4245229045815027 208.55239099999997
-1.902021251518543 -2.549899202953096 209.64728699999998
-1.8085005414985844 -2.4245229045815027 209.96011399999998
-2.0890620736534777 -2.8006509981292984 209.803701
-1.6214597193636502 -2.1737711094053007 210.272942
-1.9955419615385015 -2.675275501324689 210.585769
-2.0890620736534777 -2.8006509981292984 210.429356
-2.0890620736534773 -2.800650998129298 211.055011
-1.9955419615385017 -2.6752755013246894 210.898597
-1.5279390093436918 -2.048394811033708 210.11652800000002
-1.9955419615385017 -2.6752755013246894 210.74218299999998
-1.8085005414985844 -2.4245229045815027 211.680666
-2.0890620736534777 -2.8006509981292984 211.524252
-2.0890620736534773 -2.8006509981292975 212.306321
-1.9955419615385013 -2.6752755013246885 212.149907
-1.7149798314786258 -2.2991466062099093 211.837079
-1.714979831478626 -2.2991466062099097 211.99349300000003
-1.714979831478626 -2.2991466062099097 211.36783800000003
-1.714979831478626 -2.2991466062099097 211.211424
-1.902021251518543 -2.549899202953096 212.619148
-2.0890620736534773 -2.800650998129298 213.088389
-1.8085005414985844 -2.4245229045815027 212.775562
-1.9020212515185435 -2.5498992029530965 212.462734
-1.8085005414985846 -2.424522904581503 212.931976
-2.0890620736534777 -2.8006509981292984 213.24480300000002
-2.276103493693395 -3.0514035948724847 213.401217
-2.089062073653478 -2.800650998129299 213.71404400000003
-2.0890620736534777 -2.8006509981292984 213.557631
-1.9020212515185433 -2.549899202953096 213.870458
-2.2761034936933946 -3.0514035948724842 214.183286
-2.0890620736534777 -2.8006509981292984 214.026872
-2.0890620736534773 -2.800650998129298 214.33969900000002
-1.714979831478626 -2.2991466062099097 214.652527
-1.8085005414985844 -2.4245229045815027 214.496113
-1.7149798314786255 -2.299146606209909 214.80894099999998
-1.5279390093436913 -2.0483948110337074 214.965354
-1.6214597193636502 -2.1737711094053007 215.12176800000003
-1.9955419615385017 -2.6752755013246894 215.90383699999998
-1.6214597193636504 -2.173771109405301 215.747423
-1.6214597193636502 -2.1737711094053007 215.591009
-1.5279390093436913 -2.0483948110337074 215.434596
-1.9955419615385017 -2.6752755013246894 216.060251
-1.9955419615385015 -2.675275501324689 216.216664
-1.340897589303774 -1.7976422142905208 215.278182
-1.9955419615385015 -2.675275501324689 217.155147
-2.0890620736534773 -2.800650998129298 216.998733
-1.9020212515185433 -2.549899202953096 216.373078
-1.9020212515185435 -2.5498992029530965 216.529492
-1.6214597193636504 -2.173771109405301 217.311561
-1.9020212515185435 -2.5498992029530965 216.68590600000002
-1.7149798314786258 -2.2991466062099093 217.467974
-1.8085005414985844 -2.4245229045815027 216.842319
-1.7149798314786258 -2.2991466062099093 218.562871
-1.6214597193636504 -2.173771109405301 218.250043
-1.7149798314786258 -2.2991466062099093 217.937216
-1.5279390093436915 -2.048394811033708 217.62438799999998
-1.5279390093436918 -2.048394811033708 218.09362900000002
-1.5279390093436915 -2.048394811033708 217.78080199999997
-1.5279390093436913 -2.0483948110337074 218.40645699999996
-1.4344182993237329 -1.9230185126621144 218.719284
-1.340897589303774 -1.7976422142905208 218.875698
-1.2473774771887984 -1.6722667174859123 219.032112
-1.0603360571488814 -1.421514120742726 219.188525
-1.0603360571488814 -1.421514120742726 219.970594
-1.0603360571488814 -1.421514120742726 219.501353
-0.9668153471289225 -1.2961378223711324 219.81418
-1.7617144833108405 -2.834721998281634 170.70026400000003
-1.8442763833707045 -2.96756987830802 171.01309200000003
-1.9268388112760801 -3.1004186076748064 171.16950600000004
-1.76171448331084 -2.834721998281633 170.85667799999996
-1.8442763833707043 -2.9675698783080198 171.32591900000003
-1.8442763833707043 -2.9675698783080198 171.482333
-1.6791520554054649 -2.7018732689148472 171.638747
-1.6791520554054646 -2.7018732689148472 171.795161
-1.7617144833108402 -2.8347219982816334 172.264402
-1.7617144833108407 -2.834721998281634 171.951574
-1.6791520554054646 -2.7018732689148472 172.420816
-1.7617144833108407 -2.834721998281634 172.107988
-1.6791520554054649 -2.7018732689148472 172.577229
-1.6791520554054649 -2.7018732689148472 172.890057
-1.5140271995947137 -2.4361758101812745 172.733643
-1.7617144833108402 -2.8347219982816334 173.046471
-1.6791520554054649 -2.7018732689148472 173.35929799999997
-1.4314652995348498 -2.303327930154888 173.202884
-1.7617144833108402 -2.8347219982816334 173.98495299999996
-1.6791520554054644 -2.701873268914847 173.82853899999998
-1.596589627500089 -2.5690245395480606 173.51571199999998
-1.679152055405465 -2.7018732689148477 174.141367
-1.5965896275000888 -2.56902453954806 173.67212599999996
-1.8442763833707045 -2.96756987830802 174.454194
-1.7617144833108402 -2.8347219982816334 174.29777999999996
-1.8442763833707045 -2.96756987830802 174.76702200000003
-1.6791520554054646 -2.7018732689148472 174.61060799999998
-1.7617144833108402 -2.8347219982816334 175.236263
-1.5965896275000888 -2.56902453954806 174.923435
-1.7617144833108405 -2.834721998281634 175.54909
-1.76171448331084 -2.834721998281633 175.392677
-1.5140271995947137 -2.4361758101812745 175.079849
-1.6791520554054649 -2.7018732689148472 175.861918
-1.6791520554054646 -2.7018732689148472 175.705504
-1.6791520554054649 -2.7018732689148472 176.331159
-1.596589627500089 -2.5690245395480606 176.174745
-1.679152055405465 -2.7018732689148477 176.018332
-1.7617144833108405 -2.834721998281634 176.487573
-1.6791520554054646 -2.7018732689148472 176.64398699999998
-1.7617144833108405 -2.834721998281634 176.956814
-1.6791520554054649 -2.7018732689148472 176.8004
-1.7617144833108402 -2.8347219982816334 177.26964199999998
-1.7617144833108405 -2.834721998281634 177.11322799999996
-1.7617144833108405 -2.834721998281634 177.582469
-1.844276383370704 -2.9675698783080193 177.426055
-1.8442763833707043 -2.9675698783080198 177.895297
-1.8442763833707048 -2.9675698783080207 178.208124
-1.8442763833707043 -2.9675698783080198 178.05171
-1.8442763833707043 -2.9675698783080198 178.520952
-1.7617144833108402 -2.8347219982816334 178.677365
-1.7617144833108405 -2.834721998281634 178.364538
-1.7617144833108402 -2.8347219982816334 178.833779
-1.4314652995348496 -2.303327930154888 177.738883
-1.8442763833707045 -2.96756987830802 178.990193
-1.9268388112760804 -3.100418607674807 179.61584800000003
-1.6791520554054649 -2.7018732689148472 179.14660700000002
-1.8442763833707045 -2.96756987830802 179.772262
-1.7617144833108407 -2.834721998281634 179.459434
-1.844276383370704 -2.9675698783080193 179.30302
-1.6791520554054649 -2.7018732689148472 179.928675
-1.9268388112760795 -3.100418607674806 180.55433
-1.7617144833108405 -2.834721998281634 180.24150299999997
-1.7617144833108407 -2.834721998281634 180.397917
-1.844276383370704 -2.9675698783080193 180.867158
-1.8442763833707043 -2.9675698783080198 180.710744
-1.596589627500089 -2.5690245395480606 180.085089
-1.8442763833707043 -2.9675698783080198 181.179985
-1.5965896275000888 -2.56902453954806 181.023572
-1.679152055405465 -2.7018732689148477 181.336399
-1.6791520554054649 -2.7018732689148472 181.49281300000004
-1.596589627500089 -2.5690245395480606 181.80564000000004
-1.3489028716294742 -2.170479200788102 181.64922699999997
-1.596589627500089 -2.5690245395480606 181.962054
-1.8442763833707043 -2.9675698783080198 182.587709
-1.7617144833108402 -2.8347219982816334 182.431295
-1.7617144833108402 -2.8347219982816334 182.27488199999996
-1.679152055405465 -2.7018732689148477 182.744123
-1.5965896275000895 -2.569024539548061 182.118468
-1.7617144833108405 -2.834721998281634 182.900536
-1.5140271995947139 -2.436175810181275 183.05695
-1.9268388112760797 -3.100418607674806 183.682605
-1.8442763833707043 -2.9675698783080198 183.526191
-1.7617144833108405 -2.834721998281634 183.369778
-1.5140271995947139 -2.436175810181275 183.21336399999998
-1.7617144833108405 -2.834721998281634 183.995433
-1.8442763833707043 -2.9675698783080198 183.839019
-1.8442763833707043 -2.9675698783080198 184.151846
-1.7617144833108407 -2.834721998281634 184.30826
-1.7617144833108405 -2.834721998281634 184.464674
-1.8442763833707045 -2.96756987830802 185.403156
-1.9268388112760797 -3.100418607674806 185.246743
-1.7617144833108402 -2.8347219982816334 185.09032900000003
-1.5965896275000886 -2.56902453954806 184.933915
-1.6791520554054653 -2.701873268914848 184.77750100000003
-1.5140271995947137 -2.4361758101812745 184.621088
-1.8442763833707043 -2.9675698783080198 185.55957
-1.9268388112760793 -3.1004186076748055 186.028811
-1.9268388112760795 -3.100418607674806 185.872398
-1.844276383370704 -2.9675698783080193 186.185225
-1.7617144833108407 -2.834721998281634 185.715984
-1.8442763833707043 -2.9675698783080198 186.498053
-1.7617144833108405 -2.834721998281634 186.34163899999996
-1.7617144833108407 -2.834721998281634 186.654466
-1.844276383370704 -2.9675698783080193 186.967294
-1.7617144833108407 -2.834721998281634 186.81088
-1.76171448331084 -2.834721998281633 187.123708
-1.7617144833108402 -2.8347219982816334 187.436535
-1.7617144833108407 -2.834721998281634 187.28012100000004
-1.7617144833108405 -2.834721998281634 187.592949
-1.7617144833108407 -2.834721998281634 188.06218999999996
-1.5965896275000895 -2.569024539548061 187.905776
-1.679152055405465 -2.7018732689148477 187.74936300000002
-1.7617144833108405 -2.834721998281634 188.531431
-1.6791520554054649 -2.7018732689148472 188.375018
-1.5965896275000895 -2.569024539548061 188.21860400000003
-1.7617144833108405 -2.834721998281634 189.000673
-1.6791520554054646 -2.7018732689148472 188.844259
-1.5140271995947137 -2.4361758101812745 188.68784500000004
-1.8442763833707043 -2.9675698783080198 189.626328
-1.7617144833108405 -2.834721998281634 189.157086
-1.7617144833108405 -2.834721998281634 189.782741
-1.7617144833108407 -2.834721998281634 189.3135
-1.6791520554054649 -2.7018732689148472 189.46991400000002
-1.9268388112760795 -3.100418607674806 190.251983
-1.8442763833707043 -2.9675698783080198 189.939155
-1.8442763833707045 -2.96756987830802 190.095569
-1.6791520554054649 -2.7018732689148472 190.40839600000004
-1.8442763833707043 -2.9675698783080198 191.034051
-1.596589627500089 -2.5690245395480606 190.721224
-1.5965896275000895 -2.569024539548061 190.56481000000002
-1.9268388112760797 -3.100418607674806 191.34687899999997
-1.7617144833108407 -2.834721998281634 191.190465
-1.8442763833707043 -2.9675698783080198 191.81612
-1.4314652995348498 -2.303327930154888 190.877638
-1.8442763833707043 -2.9675698783080198 191.503293
-1.7617144833108405 -2.834721998281634 191.65970599999997
-1.679152055405465 -2.7018732689148477 191.97253400000002
-1.7617144833108405 -2.834721998281634 192.285361
-1.679152055405465 -2.7018732689148477 192.128947
-1.6791520554054649 -2.7018732689148472 192.754602
-1.5965896275000888 -2.56902453954806 192.598189
-1.844276383370704 -2.9675698783080193 193.223844
-1.8442763833707043 -2.9675698783080198 193.06743
-1.596589627500089 -2.5690245395480606 192.911016
-1.5140271995947137 -2.4361758101812745 192.441775
-1.844276383370704 -2.9675698783080193 193.693085
-1.844276383370704 -2.9675698783080193 193.53667099999998
-1.7617144833108407 -2.834721998281634 193.849499
-1.5965896275000895 -2.569024539548061 193.380257
-1.5965896275000888 -2.56902453954806 194.005912
-2.0094012391814555 -3.2332673370415925 194.475154
-1.6791520554054653 -2.701873268914848 194.162326
-2.0094012391814555 -3.2332673370415925 194.787981
-2.091963139241319 -3.3661152170679784 194.631567
-1.8442763833707045 -2.96756987830802 194.31874
-1.9268388112760797 -3.100418607674806 195.100809
-1.9268388112760797 -3.100418607674806 194.94439499999996
-1.7617144833108407 -2.834721998281634 195.257222
-1.8442763833707043 -2.9675698783080198 195.882877
-1.7617144833108407 -2.834721998281634 195.57005
-1.5140271995947137 -2.4361758101812745 195.41363600000003
-1.679152055405465 -2.7018732689148477 196.195705
-1.6791520554054653 -2.701873268914848 196.03929100000002
-1.679152055405465 -2.7018732689148477 196.50853200000003
-1.76171448331084 -2.834721998281633 196.352119
-1.6791520554054649 -2.7018732689148472 195.72646400000002
-1.844276383370704 -2.9675698783080193 196.82136
-1.596589627500089 -2.5690245395480606 196.664946
-1.7617144833108405 -2.834721998281634 197.29060100000004
-1.6791520554054653 -2.701873268914848 196.977774
-1.596589627500089 -2.5690245395480606 197.134187
-1.6791520554054649 -2.7018732689148472 197.91625599999998
-1.6791520554054649 -2.7018732689148472 197.75984200000002
-1.679152055405465 -2.7018732689148477 197.447015
-1.76171448331084 -2.834721998281633 198.07267
-1.5140271995947137 -2.4361758101812745 197.603429
-1.76171448331084 -2.834721998281633 198.38549699999996
-1.8442763833707043 -2.9675698783080198 198.229084
-1.7617144833108402 -2.8347219982816334 198.541911
-1.679152055405465 -2.7018732689148477 199.011152
-1.8442763833707048 -2.9675698783080207 198.854739
-1.7617144833108407 -2.834721998281634 198.69832500000004
-1.9268388112760801 -3.1004186076748064 199.32398
-1.8442763833707048 -2.9675698783080207 199.167566
-1.7617144833108405 -2.834721998281634 199.48039399999996
-1.7617144833108402 -2.8347219982816334 199.793221
-1.8442763833707043 -2.9675698783080198 199.94963499999997
-1.8442763833707043 -2.9675698783080198 200.106049
-1.596589627500089 -2.5690245395480606 199.636807
-1.9268388112760795 -3.100418607674806 200.418876
-1.844276383370704 -2.9675698783080193 200.262462
-1.6791520554054649 -2.7018732689148472 200.731704
-1.679152055405465 -2.7018732689148477 200.57529
-1.7617144833108407 -2.834721998281634 201.513772
-1.596589627500089 -2.5690245395480606 201.04453099999998
-1.7617144833108402 -2.8347219982816334 201.357358
-1.7617144833108407 -2.834721998281634 201.20094499999996
-1.596589627500089 -2.5690245395480606 200.888117
-1.6791520554054649 -2.7018732689148472 201.8266
-1.5140271995947137 -2.4361758101812745 201.670186
-1.8442763833707045 -2.96756987830802 202.45225500000004
-1.76171448331084 -2.834721998281633 202.13942699999998
-1.761714483310841 -2.8347219982816343 201.983013
-1.679152055405465 -2.7018732689148477 202.60866800000002
-1.6791520554054649 -2.7018732689148472 202.295841
-1.6791520554054646 -2.7018732689148472 202.76508200000004
-1.9268388112760797 -3.100418607674806 203.390737
-1.8442763833707039 -2.9675698783080193 203.234323
-1.8442763833707043 -2.9675698783080198 202.921496
-1.7617144833108402 -2.8347219982816334 203.07791
-1.7617144833108405 -2.834721998281634 203.547151
-1.7617144833108407 -2.834721998281634 203.859978
-1.761714483310841 -2.8347219982816343 203.703565
-1.6791520554054646 -2.7018732689148472 204.01639199999997
-1.7617144833108407 -2.834721998281634 204.172806
-1.7617144833108402 -2.8347219982816334 204.485633
-1.7617144833108405 -2.834721998281634 204.32921999999996
-1.6791520554054649 -2.7018732689148472 204.642047
-1.679152055405465 -2.7018732689148477 204.954875
-1.5140271995947137 -2.4361758101812745 204.79846100000003
-1.6791520554054649 -2.7018732689148472 205.11128799999997
-1.8442763833707043 -2.9675698783080198 205.73694299999997
-1.679152055405465 -2.7018732689148477 205.424116
-1.2663404437240988 -2.037630471421316 205.267702
-1.6791520554054649 -2.7018732689148472 205.893357
-1.7617144833108405 -2.834721998281634 205.58053
-2.0094012391814555 -3.2332673370415925 206.519012
-1.5140271995947134 -2.436175810181274 206.362598
-1.6791520554054646 -2.7018732689148472 206.206185
-1.7617144833108405 -2.834721998281634 206.675426
-1.3489028716294742 -2.170479200788102 206.049771
-1.5965896275000888 -2.56902453954806 206.83184
-1.9268388112760797 -3.100418607674806 207.144667
-1.9268388112760795 -3.100418607674806 206.988253
-1.7617144833108405 -2.834721998281634 207.457495
-1.9268388112760797 -3.100418607674806 207.613908
-1.6791520554054649 -2.7018732689148472 207.30108100000004
-1.8442763833707045 -2.96756987830802 208.08315
-1.844276383370704 -2.9675698783080193 207.77032199999996
-1.7617144833108407 -2.834721998281634 207.926736
-1.8442763833707048 -2.9675698783080207 209.178046
-1.5140271995947137 -2.4361758101812745 208.239563
-1.9268388112760797 -3.100418607674806 209.33446
-1.8442763833707043 -2.9675698783080198 209.021632
-1.596589627500089 -2.5690245395480606 208.708805
-1.5140271995947137 -2.4361758101812745 208.395977
-1.679152055405465 -2.7018732689148477 208.865218
-1.761714483310841 -2.8347219982816343 209.490873
-1.5140271995947137 -2.4361758101812745 208.552391
-1.6791520554054646 -2.7018732689148472 209.64728699999998
-1.596589627500089 -2.5690245395480606 210.272942
-1.596589627500089 -2.5690245395480606 210.116528
-1.596589627500089 -2.5690245395480606 209.96011399999998
-1.43146529953485 -2.3033279301548886 209.80370100000002
-1.844276383370704 -2.9675698783080193 211.21142399999997
-1.7617144833108402 -2.8347219982816334 211.055011
-1.6791520554054649 -2.7018732689148472 210.742183
-1.6791520554054646 -2.7018732689148472 210.585769
-1.679152055405465 -2.7018732689148477 210.42935600000004
-1.8442763833707039 -2.9675698783080193 212.149907
-1.596589627500089 -2.5690245395480606 211.837079
-1.844276383370704 -2.9675698783080193 211.367838
-1.596589627500089 -2.5690245395480606 210.89859699999997
-2.0094012391814555 -3.2332673370415925 212.306321
-1.5965896275000888 -2.56902453954806 211.99349299999997
-1.6791520554054649 -2.7018732689148472 211.680666
-1.7617144833108402 -2.8347219982816334 211.524252
-1.9268388112760801 -3.1004186076748064 213.088389
-1.6791520554054646 -2.7018732689148472 212.775562
-1.679152055405465 -2.7018732689148477 212.462734
-1.6791520554054649 -2.7018732689148472 212.931976
-1.596589627500089 -2.5690245395480606 212.61914800000002
-1.6791520554054649 -2.7018732689148472 213.244803
-1.9268388112760801 -3.1004186076748064 213.557631
-1.9268388112760797 -3.100418607674806 213.714044
-1.9268388112760795 -3.100418607674806 214.339699
-1.9268388112760793 -3.1004186076748055 214.183286
-1.6791520554054649 -2.7018732689148472 213.870458
-1.6791520554054649 -2.7018732689148472 213.40121700000003
-1.5965896275000895 -2.569024539548061 214.026872
-1.6791520554054649 -2.7018732689148472 214.652527
-1.596589627500089 -2.5690245395480606 214.496113
-1.5140271995947134 -2.436175810181274 214.80894099999998
-1.348902871629474 -2.1704792007881015 214.965354
-1.2663404437240988 -2.037630471421316 215.121768
-1.596589627500089 -2.5690245395480606 215.903837
-1.5140271995947137 -2.4361758101812745 215.747423
-1.5140271995947137 -2.4361758101812745 215.591009
-1.348902871629474 -2.1704792007881015 215.434596
-1.2663404437240988 -2.037630471421316 215.278182
-1.596589627500089 -2.5690245395480606 216.21666400000004
-1.6791520554054649 -2.7018732689148472 216.06025099999997
-1.8442763833707043 -2.9675698783080198 216.998733
-1.7617144833108405 -2.834721998281634 216.685906
-1.679152055405465 -2.7018732689148477 216.529492
-1.6791520554054646 -2.7018732689148472 217.155147
-1.6791520554054649 -2.7018732689148472 216.84231900000003
-1.5140271995947139 -2.436175810181275 216.373078
-1.5140271995947137 -2.4361758101812745 217.780802
-1.5140271995947137 -2.4361758101812745 217.467974
-1.5140271995947137 -2.4361758101812745 217.311561
-1.5140271995947134 -2.436175810181274 218.406457
-1.43146529953485 -2.3033279301548886 218.250043
-1.5140271995947137 -2.4361758101812745 217.937216
-1.5140271995947137 -2.4361758101812745 217.624388
-1.43146529953485 -2.3033279301548886 218.562871
-1.4314652995348498 -2.303327930154888 218.093629
-1.183778015818723 -1.9047817420545292 218.719284
-1.0186536878534838 -1.639085132661357 219.03211200000004
-1.1012161157588594 -1.7719338620281433 218.875698
-1.0186536878534835 -1.6390851326613565 219.657767
-0.9360912599481082 -1.5062364032945708 219.970594
-0.8535288320427323 -1.3733876739277842 219.81418
-1.5862291863749816 -3.113150065318432 170.700264
-1.5862291863749822 -3.1131500653184334 171.01309200000003
-1.5862291863749818 -3.1131500653184325 171.169506
-1.51521917033922 -2.973785061850557 170.85667799999996
-1.586229186374982 -3.113150065318433 171.32591900000003
-1.5152191703392206 -2.973785061850558 171.638747
-1.586229186374982 -3.113150065318433 171.482333
-1.586229186374982 -3.113150065318433 171.795161
-1.444208700312959 -2.834419167376158 171.951574
-1.3731982302866974 -2.6950532729017582 172.107988
-1.5862291863749822 -3.1131500653184334 172.420816
-1.5152191703392202 -2.973785061850557 172.264402
-1.5152191703392204 -2.9737850618505575 172.577229
-1.3731982302866974 -2.6950532729017582 172.890057
-1.3731982302866979 -2.695053272901759 172.733643
-1.4442087003129591 -2.8344191673761583 173.35929799999997
-1.4442087003129591 -2.8344191673761583 173.20288399999998
-1.444208700312959 -2.834419167376158 173.04647099999997
-1.5862291863749822 -3.1131500653184334 173.672126
-1.5152191703392202 -2.973785061850557 173.98495299999996
-1.5152191703392204 -2.9737850618505575 173.828539
-1.3731982302866976 -2.6950532729017587 173.51571199999998
-1.5152191703392202 -2.973785061850557 174.29777999999996
-1.302187760260436 -2.5556873784273586 174.141367
-1.586229186374982 -3.113150065318433 174.610608
-1.4442087003129593 -2.8344191673761587 174.454194
-1.4442087003129591 -2.8344191673761583 174.767022
-1.586229186374982 -3.113150065318433 175.236263
-1.302187760260436 -2.5556873784273586 174.923435
-1.444208700312959 -2.834419167376158 175.54909
-1.51521917033922 -2.973785061850557 175.392677
-1.4442087003129587 -2.8344191673761574 175.07984899999997
-1.4442087003129591 -2.8344191673761583 175.861918
-1.444208700312959 -2.834419167376158 175.705504
-1.5152191703392202 -2.973785061850557 176.331159
-1.3731982302866976 -2.6950532729017587 176.174745
-1.3731982302866976 -2.6950532729017587 176.018332
-1.5152191703392204 -2.9737850618505575 176.487573
-1.3021877602604361 -2.555687378427359 176.64398699999998
-1.5152191703392204 -2.9737850618505575 176.956814
-1.3731982302866979 -2.695053272901759 176.8004
-1.5862291863749818 -3.1131500653184325 177.426055
-1.4442087003129591 -2.8344191673761583 177.269642
-1.444208700312959 -2.834419167376158 177.113228
-1.6572396564012433 -3.252515959792832 178.05171
-1.5152191703392206 -2.973785061850558 177.738883
-1.5152191703392206 -2.973785061850558 178.208124
-1.5152191703392204 -2.9737850618505575 177.895297
-1.3731982302866972 -2.695053272901758 177.582469
-1.586229186374982 -3.113150065318433 178.520952
-1.444208700312959 -2.834419167376158 178.36453799999998
-1.4442087003129593 -2.8344191673761587 178.833779
-1.5862291863749822 -3.1131500653184334 178.990193
-1.089156804172152 -2.1375905860106856 178.677365
-1.4442087003129591 -2.8344191673761583 179.14660700000002
-1.5862291863749822 -3.1131500653184334 179.772262
-1.5152191703392206 -2.973785061850558 179.459434
-1.5862291863749818 -3.1131500653184325 179.30302
-1.5862291863749822 -3.1131500653184334 179.92867500000003
-1.5152191703392204 -2.9737850618505575 179.615848
-1.5862291863749822 -3.1131500653184334 180.08508900000004
-1.586229186374982 -3.113150065318433 180.397917
-1.5152191703392204 -2.9737850618505575 180.24150299999997
-1.5862291863749822 -3.1131500653184334 180.55433
-1.5862291863749818 -3.1131500653184325 180.867158
-1.586229186374982 -3.113150065318433 180.710744
-1.4442087003129593 -2.8344191673761587 181.179985
-1.4442087003129591 -2.8344191673761583 181.023572
-1.5152191703392202 -2.973785061850557 181.336399
-1.4442087003129591 -2.8344191673761583 181.49281300000004
-1.5152191703392204 -2.9737850618505575 181.962054
-1.3731982302866976 -2.6950532729017587 181.80564000000004
-1.3021877602604364 -2.5556873784273595 181.649227
-1.586229186374982 -3.113150065318433 182.587709
-1.5862291863749818 -3.1131500653184325 182.43129499999998
-1.5152191703392202 -2.973785061850557 182.27488199999996
-1.4442087003129593 -2.8344191673761587 182.744123
-1.3021877602604366 -2.5556873784273604 182.11846800000004
-1.5152191703392204 -2.9737850618505575 182.900536
-1.3731982302866974 -2.6950532729017582 183.05695
-1.586229186374982 -3.113150065318433 183.526191
-1.5152191703392204 -2.9737850618505575 183.369778
-1.6572396564012433 -3.252515959792832 183.839019
-1.586229186374982 -3.113150065318433 183.682605
-1.3021877602604364 -2.55568737842736 183.21336399999998
-1.5152191703392202 -2.973785061850557 184.15184599999998
-1.586229186374982 -3.113150065318433 184.464674
-1.586229186374982 -3.113150065318433 184.30826
-1.3021877602604364 -2.5556873784273595 183.995433
-1.3731982302866974 -2.6950532729017582 184.621088
-1.5152191703392202 -2.973785061850557 185.09032900000003
-1.3731982302866972 -2.695053272901758 184.933915
-1.657239656401243 -3.2525159597928317 185.55957
-1.5152191703392204 -2.9737850618505575 185.246743
-1.5862291863749818 -3.1131500653184325 186.02881099999996
-1.5152191703392204 -2.9737850618505575 185.87239799999998
-1.4442087003129593 -2.8344191673761587 185.40315600000002
-1.2311777442246747 -2.4163223749594844 184.777501
-1.5862291863749818 -3.1131500653184325 186.185225
-1.4442087003129591 -2.8344191673761583 185.71598399999996
-1.6572396564012433 -3.252515959792832 186.49805299999997
-1.5152191703392204 -2.9737850618505575 186.34163899999996
-1.4442087003129591 -2.8344191673761583 186.654466
-1.5862291863749818 -3.1131500653184325 186.967294
-1.5152191703392206 -2.973785061850558 186.81088
-1.51521917033922 -2.973785061850557 187.123708
-1.586229186374982 -3.113150065318433 187.436535
-1.5152191703392206 -2.973785061850558 187.28012100000004
-1.5152191703392204 -2.9737850618505575 187.592949
-1.5152191703392204 -2.9737850618505575 188.218604
-1.586229186374982 -3.113150065318433 188.06219
-1.4442087003129596 -2.834419167376159 187.90577600000003
-1.3731982302866979 -2.695053272901759 187.74936300000002
-1.4442087003129591 -2.8344191673761583 188.375018
-1.5152191703392204 -2.9737850618505575 188.531431
-1.586229186374982 -3.113150065318433 189.00067299999998
-1.3021877602604364 -2.5556873784273595 188.68784500000004
-1.5152191703392204 -2.9737850618505575 189.782741
-1.5152191703392206 -2.973785061850558 189.626328
-1.4442087003129593 -2.8344191673761587 189.15708600000002
-1.3731982302866976 -2.6950532729017587 188.844259
-1.4442087003129591 -2.8344191673761583 189.46991400000002
-1.4442087003129591 -2.8344191673761583 189.3135
-1.657239656401243 -3.2525159597928317 190.251983
-1.657239656401243 -3.2525159597928317 190.09556899999998
-1.5152191703392204 -2.9737850618505575 189.93915500000003
-1.5152191703392206 -2.973785061850558 190.56481
-1.5152191703392204 -2.9737850618505575 190.408396
-1.3731982302866979 -2.695053272901759 191.190465
-1.5152191703392206 -2.973785061850558 190.877638
-1.4442087003129596 -2.834419167376159 190.721224
-1.6572396564012433 -3.252515959792832 191.34687899999997
-1.6572396564012437 -3.252515959792833 191.659706
-1.4442087003129593 -2.8344191673761587 191.034051
-1.586229186374982 -3.113150065318433 191.81612
-1.5152191703392204 -2.9737850618505575 191.50329299999999
-1.5152191703392204 -2.9737850618505575 192.128947
-1.4442087003129593 -2.8344191673761587 191.97253400000002
-1.5152191703392204 -2.9737850618505575 192.754602
-1.3021877602604364 -2.5556873784273595 192.598189
-1.3021877602604364 -2.55568737842736 192.285361
-1.5152191703392204 -2.9737850618505575 192.911016
-1.3021877602604364 -2.5556873784273595 192.441775
-1.5152191703392206 -2.973785061850558 193.223844
-1.444208700312959 -2.834419167376158 193.06743
-1.5862291863749818 -3.1131500653184325 193.693085
-1.5862291863749818 -3.1131500653184325 193.53667099999998
-1.5152191703392206 -2.973785061850558 193.849499
-1.3731982302866979 -2.695053272901759 193.380257
-1.3731982302866974 -2.6950532729017582 194.005912
-1.7992601424632662 -3.5312468577351064 194.787981
-1.8702706124895283 -3.6706127522095073 194.63156700000002
-1.5152191703392202 -2.973785061850557 194.162326
-1.5152191703392202 -2.973785061850557 194.31874
-1.6572396564012433 -3.252515959792832 195.100809
-1.5862291863749822 -3.1131500653184334 194.475154
-1.586229186374982 -3.113150065318433 195.257222
-1.586229186374982 -3.113150065318433 194.944395
-1.5152191703392204 -2.9737850618505575 195.413636
-1.657239656401243 -3.2525159597928317 195.726464
-1.586229186374982 -3.113150065318433 195.57005
-1.5152191703392206 -2.973785061850558 196.039291
-1.586229186374982 -3.113150065318433 195.882877
-1.4442087003129593 -2.8344191673761587 196.50853200000003
-1.3731982302866976 -2.6950532729017587 196.195705
-1.4442087003129591 -2.8344191673761583 196.664946
-1.4442087003129593 -2.8344191673761587 196.35211899999996
-1.5152191703392204 -2.9737850618505575 196.82136
-1.4442087003129596 -2.834419167376159 196.977774
-1.4442087003129591 -2.8344191673761583 197.290601
-1.2311777442246745 -2.416322374959484 197.91625599999998
-1.4442087003129591 -2.8344191673761583 197.75984200000002
-1.3731982302866976 -2.6950532729017587 197.134187
-1.6572396564012433 -3.252515959792832 198.22908399999997
-1.5862291863749818 -3.1131500653184325 198.07267
-1.3731982302866976 -2.6950532729017587 197.447015
-1.5152191703392202 -2.973785061850557 198.541911
-1.3021877602604364 -2.5556873784273595 197.603429
-1.5152191703392206 -2.973785061850558 198.69832500000004
-1.6572396564012435 -3.2525159597928326 199.32398
-1.3731982302866976 -2.6950532729017587 199.16756600000002
-1.5152191703392204 -2.9737850618505575 198.854739
-1.3731982302866976 -2.6950532729017587 198.385497
-1.5152191703392202 -2.973785061850557 199.011152
-1.5152191703392202 -2.973785061850557 199.636807
-1.4442087003129591 -2.8344191673761583 199.48039399999996
-1.5152191703392202 -2.973785061850557 200.106049
-1.5152191703392202 -2.973785061850557 199.949635
-1.5152191703392202 -2.973785061850557 199.793221
-1.657239656401243 -3.2525159597928317 200.262462
-1.5152191703392204 -2.9737850618505575 200.418876
-1.5862291863749818 -3.1131500653184325 200.57529
-1.5152191703392202 -2.973785061850557 200.731704
-1.3731982302866976 -2.6950532729017587 201.04453099999998
-1.4442087003129593 -2.8344191673761587 200.88811700000002
-1.3731982302866974 -2.6950532729017582 201.35735799999998
-1.3731982302866974 -2.6950532729017582 201.51377199999996
-1.3731982302866974 -2.6950532729017582 201.20094499999996
-1.4442087003129591 -2.8344191673761583 201.8266
-1.3731982302866976 -2.6950532729017587 201.670186
-1.6572396564012433 -3.252515959792832 202.608668
-1.5862291863749818 -3.1131500653184325 202.29584099999997
-1.3731982302866976 -2.6950532729017587 202.139427
-1.5152191703392202 -2.973785061850557 202.452255
-1.586229186374982 -3.113150065318433 202.765082
-1.2311777442246747 -2.4163223749594844 201.983013
-1.6572396564012433 -3.252515959792832 203.390737
-1.6572396564012433 -3.252515959792832 203.23432300000002
-1.5152191703392202 -2.973785061850557 203.07791
-1.586229186374982 -3.113150065318433 202.921496
-1.586229186374982 -3.113150065318433 203.547151
-1.5152191703392206 -2.973785061850558 203.859978
-1.444208700312959 -2.834419167376158 204.01639199999997
-1.3731982302866976 -2.6950532729017587 203.703565
-1.586229186374982 -3.113150065318433 204.32922
-1.5152191703392206 -2.973785061850558 204.172806
-1.5152191703392202 -2.973785061850557 204.485633
-1.4442087003129591 -2.8344191673761583 204.642047
-1.5152191703392202 -2.973785061850557 204.954875
-1.3731982302866976 -2.6950532729017587 204.798461
-1.5152191703392204 -2.9737850618505575 205.111288
-1.4442087003129593 -2.8344191673761587 206.049771
-1.586229186374982 -3.113150065318433 205.73694299999997
-1.4442087003129593 -2.8344191673761587 205.424116
-1.3731982302866976 -2.6950532729017587 205.267702
-1.5152191703392204 -2.9737850618505575 205.58053
-1.3731982302866974 -2.6950532729017582 206.362598
-1.3731982302866974 -2.6950532729017582 205.893357
-1.4442087003129591 -2.8344191673761583 206.519012
-1.3021877602604364 -2.5556873784273595 206.206185
-1.3731982302866974 -2.6950532729017582 206.83184
-1.586229186374982 -3.113150065318433 207.144667
-1.3731982302866974 -2.6950532729017582 206.67542599999996
-1.4442087003129591 -2.8344191673761583 206.988253
-1.5862291863749818 -3.1131500653184325 207.457495
-1.51521917033922 -2.973785061850557 207.301081
-1.6572396564012435 -3.2525159597928326 208.08315
-1.4442087003129596 -2.834419167376159 207.92673600000003
-1.4442087003129593 -2.8344191673761587 207.613908
-1.3731982302866976 -2.6950532729017587 207.770322
-1.586229186374982 -3.113150065318433 209.021632
-1.3731982302866976 -2.6950532729017587 208.395977
-1.3021877602604364 -2.5556873784273595 208.239563
-1.5152191703392204 -2.9737850618505575 209.17804600000002
-1.4442087003129593 -2.8344191673761587 208.865218
-1.4442087003129593 -2.8344191673761587 208.70880500000004
-1.160167274198413 -2.2769564804850844 208.552391
-1.5152191703392208 -2.9737850618505584 209.490873
-1.5152191703392204 -2.9737850618505575 209.33446000000004
-1.5152191703392204 -2.9737850618505575 209.647287
-1.3731982302866976 -2.6950532729017587 209.803701
-1.4442087003129593 -2.8344191673761587 210.116528
-1.3731982302866976 -2.6950532729017587 210.272942
-1.2311777442246745 -2.416322374959484 209.960114
-1.3731982302866976 -2.6950532729017587 210.585769
-1.3731982302866976 -2.6950532729017587 210.42935599999998
-1.3731982302866974 -2.6950532729017582 210.742183
-1.5152191703392202 -2.973785061850557 211.837079
-1.5862291863749822 -3.1131500653184334 211.524252
-1.3731982302866976 -2.6950532729017587 210.89859699999997
-1.657239656401243 -3.2525159597928317 212.306321
-1.51521917033922 -2.973785061850557 212.149907
-1.4442087003129591 -2.8344191673761583 211.680666
-1.5152191703392202 -2.973785061850557 211.367838
-1.3731982302866974 -2.6950532729017582 211.99349299999997
-1.3021877602604364 -2.55568737842736 211.211424
-1.1601672741984133 -2.276956480485085 211.055011
-1.5152191703392204 -2.9737850618505575 212.931976
-1.444208700312959 -2.834419167376158 212.775562
-1.4442087003129593 -2.8344191673761587 212.462734
-1.586229186374982 -3.113150065318433 213.088389
-1.3021877602604364 -2.55568737842736 212.619148
-1.4442087003129591 -2.8344191673761583 213.40121700000003
-1.5152191703392206 -2.973785061850558 213.24480299999996
-1.5152191703392204 -2.9737850618505575 213.714044
-1.5862291863749822 -3.1131500653184334 213.557631
-1.5152191703392204 -2.9737850618505575 213.870458
-1.5862291863749822 -3.1131500653184334 214.183286
-1.5862291863749822 -3.1131500653184334 214.026872
-1.657239656401243 -3.2525159597928317 214.339699
-1.5862291863749822 -3.1131500653184334 214.65252699999996
-1.4442087003129591 -2.8344191673761583 214.496113
-1.2311777442246745 -2.416322374959484 214.808941
-0.947136318110129 -1.8588596880684107 214.96535399999996
-1.1601672741984135 -2.2769564804850853 215.12176800000003
-1.5152191703392204 -2.9737850618505575 215.90383699999998
-1.3731982302866976 -2.6950532729017587 215.747423
-1.3021877602604364 -2.5556873784273595 215.591009
-1.3021877602604364 -2.5556873784273595 215.43459600000003
-1.4442087003129591 -2.8344191673761583 216.06025099999997
-1.089156804172152 -2.1375905860106856 215.278182
-1.4442087003129591 -2.8344191673761583 216.216664
-1.5862291863749822 -3.1131500653184334 217.155147
-1.586229186374982 -3.113150065318433 216.998733
-1.4442087003129593 -2.8344191673761587 216.68590600000002
-1.5152191703392202 -2.973785061850557 216.529492
-1.3731982302866979 -2.695053272901759 216.373078
-1.4442087003129591 -2.8344191673761583 216.84231900000003
-1.3021877602604364 -2.5556873784273595 217.467974
-1.3021877602604364 -2.5556873784273595 217.311561
-1.3021877602604361 -2.555687378427359 218.406457
-1.2311777442246747 -2.4163223749594844 218.250043
-1.3021877602604364 -2.5556873784273595 217.937216
-1.2311777442246745 -2.416322374959484 217.780802
-1.2311777442246747 -2.4163223749594844 218.562871
-1.2311777442246745 -2.416322374959484 218.093629
-1.1601672741984133 -2.276956480485085 217.62438799999998
-1.089156804172152 -2.1375905860106856 218.719284
-1.0181463341458905 -1.9982246915362858 218.875698
-0.9471363181101288 -1.8588596880684105 219.032112
-0.8761258480838674 -1.7194937935940109 219.657767
-0.8051153780576064 -1.5801278991196122 219.188525
